# .PCD v0.7 - Point Cloud Data file format
VERSION 0.7
FIELDS x y z intensity
SIZE 4 4 4 4
TYPE F F F F
COUNT 1 1 1 1
WIDTH 1347
HEIGHT 1
VIEWPOINT 0 0 0 1 0 0 0
POINTS 1347
DATA ascii
-1.7478001 -10.661511 -1.5183785 7
-0.27139559 -1.6555022 -0.89199597 13
-2.0451488 -12.475327 -1.4783661 11
-0.2934652 -1.7901261 -0.91116786 9
-2.4242024 -14.787538 -1.3980236 2
-0.3228597 -1.9694313 -0.94465125 5
-0.64288557 -3.9215763 -1.7693044 6
-2.3289855 -14.206718 -0.67136037 34
-0.68309265 -4.1668382 -1.7636954 8
-2.3308885 -14.218327 -0.33451396 34
-0.72333384 -4.4123073 -1.7459472 11
-2.5803282 -15.739899 0 0
-0.77378064 -4.7200308 -1.7408825 9
-2.3739092 -14.480752 0.34068805 29
-0.82700759 -5.0447135 -1.7273513 13
-0.8904562 -5.4317474 -1.7175457 6
-0.9591803 -5.8509617 -1.7001312 10
-1.0407399 -6.3484716 -1.6841221 15
-1.1352953 -6.9252558 -1.6627934 13
-1.247571 -7.6101332 -1.6391758 12
-1.3748498 -8.386529 -1.6011953 10
-0.2445673 -1.4677707 -0.88246024 3
-1.5680016 -9.4103622 -1.5673811 13
-0.25706282 -1.5427624 -0.87877119 16
-1.7766825 -10.66276 -1.5192136 7
-0.27543849 -1.6530441 -0.89105701 13
-2.0778022 -12.46993 -1.4783661 11
-0.29756325 -1.7858258 -0.90937245 9
-2.4655261 -14.796855 -1.3995099 2
-0.32771742 -1.9667962 -0.94379556 5
-2.3803515 -14.28568 -1.0127245 18
-0.65315002 -3.9198797 -1.7693044 6
-2.3691258 -14.218308 -0.67219889 35
-0.69369572 -4.1632152 -1.7629246 7
-2.3720474 -14.235843 -0.33507103 27
-0.7351889 -4.4122362 -1.7466748 10
-2.6073914 -15.648259 0 0
-0.78706163 -4.7235503 -1.7429347 10
-2.415755 -14.498155 0.34124511 30
-0.84114605 -5.0481377 -1.729272 10
-0.90435964 -5.4275146 -1.7169501 6
-0.97512674 -5.8522229 -1.7012337 11
-1.0576745 -6.3476338 -1.6846286 14
-1.1534216 -6.9222598 -1.6627934 13
-1.2684546 -7.6126299 -1.6404233 13
-1.3971239 -8.3848391 -1.6015656 10
-0.24949673 -1.4704306 -0.88450062 3
-1.5959158 -9.4056683 -1.5673811 13
-0.26134744 -1.5402739 -0.87779146 16
-1.808643 -10.659394 -1.5194919 7
-0.28093278 -1.6557016 -0.89293492 13
-2.1154566 -12.467628 -1.4788307 11
-0.30405647 -1.7919831 -0.91296327 9
-2.5120833 -14.805181 -1.4009961 2
-0.33415639 -1.9693797 -0.94550693 5
-2.428735 -14.31396 -1.0152357 19
-0.66600019 -3.9251299 -1.7725583 7
-2.4173176 -14.246671 -0.67387587 37
-0.70758879 -4.1702356 -1.7667788 7
-2.4179547 -14.250426 -0.33558166 28
-0.74858868 -4.4118724 -1.7474022 9
-2.6431029 -15.577355 0 0
-0.80107319 -4.7211943 -1.7429347 10
-2.4604337 -14.500779 0.34147722 30
-0.85643739 -5.0474877 -1.7299122 15
-0.91950125 -5.4191604 -1.7151628 7
-0.9918431 -5.8455133 -1.7001312 10
-1.0765036 -6.3444676 -1.6846286 13
-1.1742808 -6.9207258 -1.6632545 14
-1.2900543 -7.6030469 -1.6391758 12
-1.4226537 -8.3845329 -1.6023062 11
-0.25239447 -1.4612081 -0.87939972 3
-1.6231441 -9.3970022 -1.5667326 12
-0.26621318 -1.5412098 -0.87877119 16
-1.8412733 -10.659836 -1.520327 7
-0.28584409 -1.6548609 -0.89293492 13
-2.1537919 -12.469126 -1.4797599 11
-0.30876365 -1.7875509 -0.91116786 9
-2.5553222 -14.793737 -1.4006245 2
-0.34122893 -1.9755049 -0.94892955 5
-2.4762886 -14.336182 -1.0173284 19
-0.67702138 -3.9195356 -1.7709314 6
-2.4626381 -14.257154 -0.67471439 34
-0.71807426 -4.1572065 -1.7621537 7
-2.463289 -14.260921 -0.33599946 28
-0.76104146 -4.4059601 -1.7459472 10
-0.81443799 -4.7150927 -1.7415665 8
-2.5058298 -14.507207 0.34180215 33
-0.87108731 -5.0430574 -1.729272 16
-0.93590111 -5.4182897 -1.7157586 7
-1.0091827 -5.8425446 -1.7001312 8
-1.0966406 -6.3488722 -1.6866547 14
-1.1951411 -6.9191289 -1.6637156 13
-1.3132732 -7.6030412 -1.6400074 13
-1.4478593 -8.3822117 -1.6026765 10
-0.25881365 -1.4723127 -0.88654101 3
-1.6523851 -9.3999195 -1.5680296 11
-0.27169049 -1.5455651 -0.88171017 16
-1.8739222 -10.660177 -1.521162 7
-0.29014143 -1.650527 -0.89105701 13
-2.191123 -12.464637 -1.4799923 11
-0.31437549 -1.7883871 -0.91206557 9
-2.6009285 -14.795897 -1.4015535 2
-0.34614995 -1.9691424 -0.94636256 5
-2.522959 -14.352351 -1.0190026 18
-0.68864787 -3.9175098 -1.7709314 6
-2.5101173 -14.279299 -0.67611188 35
-0.73008627 -4.1532402 -1.7613829 7
-2.5080142 -14.267335 -0.33632442 30
-0.7747559 -4.4073524 -1.7474022 9
-0.83005124 -4.7219105 -1.7449868 7
-2.5537088 -14.527278 0.34245205 45
-0.88637453 -5.0423169 -1.7299122 14
-0.95296502 -5.4211302 -1.7175457 6
-1.0271791 -5.8433118 -1.7012337 8
-1.1137984 -6.3360624 -1.6841221 14
-1.2146544 -6.909802 -1.6623323 13
-1.3368422 -7.6048913 -1.6412549 10
-1.4734039 -8.3817501 -1.6034172 10
-0.26106095 -1.4596847 -0.87939972 3
-1.6813103 -9.4008036 -1.5690024 13
-0.2759681 -1.5430357 -0.88073051 16
-1.9072868 -10.664318 -1.5225537 7
-0.29534826 -1.6513971 -0.89199597 13
-2.2294955 -12.465902 -1.4809214 11
-0.31936568 -1.7856872 -0.91116786 9
-2.6444669 -14.786155 -1.4013677 2
-0.35294574 -1.9734452 -0.94892955 5
-2.5704496 -14.372297 -1.0209558 18
-0.70123333 -3.9208448 -1.7733718 7
-2.5566945 -14.295388 -0.67722988 35
-0.74273086 -4.1528726 -1.7621537 8
-2.5545592 -14.283449 -0.33688146 27
-0.78815734 -4.406868 -1.7481297 9
-2.6471479 -14.801146 0 0
-0.84339601 -4.7157269 -1.7436187 7
-2.6003211 -14.53932 0.34291628 46
-0.90166503 -5.0415301 -1.7305524 14
-0.96669275 -5.4051228 -1.7133756 5
-1.0451889 -5.8440232 -1.7023363 11
-1.1336148 -6.3384433 -1.6856416 14
-1.2358361 -6.9099994 -1.6632545 14
-1.3594004 -7.6008911 -1.6412549 10
-1.4989587 -8.3812113 -1.6041578 10
-0.26636648 -1.4657201 -0.88348043 3
-1.7075557 -9.3960724 -1.5690024 12
-0.27996421 -1.5405436 -0.87975085 15
-1.938122 -10.664797 -1.5233887 7
-0.29995868 -1.650566 -0.89199597 13
-2.2653637 -12.465491 -1.4816183 11
-0.32499012 -1.7883052 -0.91296327 9
-2.690732 -14.806142 -1.4039687 1
-0.36007139 -1.9813448 -0.95320785 5
-2.6144986 -14.386656 -1.0224904 20
-0.7105462 -3.909883 -1.7693044 4
-2.6008914 -14.31178 -0.67834789 35
-0.75465494 -4.1525979 -1.7629246 8
-2.5969388 -14.290031 -0.33720642 28
-0.80046058 -4.4046502 -1.7481297 9
-2.6798875 -14.746469 0 0
-0.85689753 -4.7152023 -1.7443027 7
-2.6448448 -14.553641 0.34342691 46
-0.91472375 -5.0333996 -1.7286317 13
-0.98280698 -5.4080377 -1.7151628 8
-1.0597857 -5.831624 -1.69958 9
-1.1516565 -6.3371568 -1.6861482 14
-1.2551277 -6.9065213 -1.6632545 13
-1.3827195 -7.608614 -1.6437498 10
-1.5227089 -8.3789263 -1.6045281 10
-0.27096984 -1.4648759 -0.88348043 3
-1.7381427 -9.3964834 -1.569975 11
-0.28511974 -1.541371 -0.88073051 16
-1.9723374 -10.66255 -1.5239455 7
-0.30482137 -1.647879 -0.89105701 13
-2.3045139 -12.458313 -1.4816183 12
-0.32963142 -1.7820032 -0.91027015 9
-2.7368712 -14.795657 -1.4037828 2
-0.36596537 -1.9784263 -0.95235223 5
-2.6633115 -14.39799 -1.0238855 20
-0.72315824 -3.9094281 -1.7701179 8
-2.6483839 -14.31729 -0.67900008 35
-0.76769698 -4.1502066 -1.7629246 7
-2.6465473 -14.307362 -0.33780989 33
-0.81361645 -4.3984499 -1.7466748 7
-2.7222002 -14.716344 0 0
-0.87068099 -4.706943 -1.7422506 8
-2.692008 -14.553124 0.34361261 49
-0.93225533 -5.0398169 -1.7318329 14
-1.0015284 -5.41431 -1.7181416 6
-1.078101 -5.8282657 -1.69958 8
-1.1712077 -6.331605 -1.6856416 14
-1.2782348 -6.9101987 -1.665099 13
-1.40626 -7.6023092 -1.643334 11
-1.5500971 -8.379899 -1.605639 8
-0.2735973 -1.4591372 -0.88041985 3
-1.7614611 -9.3941479 -1.5702993 11
-0.28952783 -1.5440972 -0.88268989 16
-1.9998449 -10.665485 -1.5250589 8
-0.30917245 -1.648865 -0.89199597 12
-2.3353145 -12.454597 -1.4818506 10
-0.33464342 -1.7847056 -0.91206557 9
-2.7744837 -14.796755 -1.404526 2
-0.36979902 -1.9721959 -0.94978523 4
-2.7025292 -14.41301 -1.0254202 20
-0.73540241 -3.9220159 -1.7766256 7
-2.6881461 -14.336303 -0.68021125 35
-0.77919596 -4.1555738 -1.7660079 8
-2.6848152 -14.318539 -0.33822769 33
-0.82401812 -4.3946176 -1.7459472 7
-2.7559392 -14.697854 0 0
-0.88321871 -4.7103434 -1.7443027 8
-2.7323503 -14.572051 0.34421608 49
-0.94491631 -5.0393863 -1.7324731 14
-8.9296818 -47.62339 2.2595758 88
-1.0144031 -5.4099703 -1.7175457 7
-1.0926932 -5.8275037 -1.7001312 9
-1.1856055 -6.323019 -1.6841221 13
-1.2943984 -6.9032292 -1.6641767 14
-1.4251922 -7.6007729 -1.6437498 12
-1.571655 -8.3818817 -1.6067499 10
-0.27785763 -1.4565806 -0.87939972 3
-1.7920744 -9.3943834 -1.571272 10
-0.2940506 -1.5414673 -0.88171017 16
-2.0329704 -10.657205 -1.5247805 7
-0.31501275 -1.6513548 -0.89387387 13
-2.3755469 -12.453053 -1.4825475 11
-0.34091836 -1.7871566 -0.91386098 9
-2.8213284 -14.789922 -1.4047118 2
-0.37667048 -1.9745759 -0.95149654 4
-2.7504125 -14.418167 -1.0263968 20
-0.74703538 -3.9160967 -1.7749987 7
-2.7357922 -14.341524 -0.68086338 35
-0.79190141 -4.1512928 -1.7652371 8
-2.7327821 -14.325746 -0.33859906 34
-0.83886743 -4.3974972 -1.7481297 7
-2.8084712 -14.722522 0 0
-0.89625144 -4.6983147 -1.7408825 9
-2.7807388 -14.577144 0.34454104 46
-0.95932317 -5.0289483 -1.7299122 19
-9.0927277 -47.665749 2.2629297 100
-1.0303208 -5.4011307 -1.7157586 8
-1.1131569 -5.8353729 -1.7034389 10
-1.2076392 -6.3306665 -1.6871612 14
-1.3171731 -6.9048634 -1.6655601 13
-1.4505301 -7.6039448 -1.6454132 13
-1.5987163 -8.380764 -1.6074905 9
-0.28355938 -1.4642434 -0.88450062 3
-1.8183016 -9.3893423 -1.571272 10
-0.29868555 -1.542352 -0.88268989 16
-2.0638528 -10.657319 -1.5256156 7
-0.31995872 -1.6522024 -0.89481282 13
-2.4129567 -12.460022 -1.4841737 10
-0.34590772 -1.7861977 -0.91386098 9
-2.8648901 -14.793715 -1.4058266 2
-0.38355783 -1.9806153 -0.95491922 4
-2.7936993 -14.4261 -1.0275129 20
-0.75901037 -3.9193766 -1.7774391 7
-2.7800086 -14.355404 -0.68188822 35
-0.80524528 -4.158124 -1.7690914 5
-2.776958 -14.339652 -0.33910972 34
-0.85114425 -4.3951373 -1.7481297 8
-0.91008276 -4.6994839 -1.7422506 9
-2.8263769 -14.59484 0.34514451 45
-0.97516406 -5.0355506 -1.7331134 14
-9.2360554 -47.693127 2.2654452 88
-1.0450366 -5.396358 -1.7151628 7
-1.1298136 -5.8341293 -1.7039901 11
-1.2256809 -6.3291688 -1.6876676 14
-1.33571 -6.897337 -1.6646379 13
-1.4710147 -7.5960231 -1.6445814 11
-1.6209924 -8.3704777 -1.6063796 9
-0.28690642 -1.4583319 -0.88144004 3
-1.8465332 -9.3858423 -1.5715963 10
-0.30157757 -1.5329047 -0.87779146 16
-2.0966115 -10.656979 -1.5264505 7
-0.32520038 -1.6529784 -0.89575171 12
-2.4499156 -12.452808 -1.4841737 9
-0.35120592 -1.7851634 -0.91386098 9
-2.9114623 -14.798827 -1.407127 2
-0.38908377 -1.9776947 -0.95406353 3
-2.8414967 -14.443196 -1.0293266 19
-0.76993066 -3.913522 -1.7758121 7
-2.8264463 -14.366694 -0.6828199 35
-0.81579787 -4.1466627 -1.7652371 7
-2.8233521 -14.350967 -0.33957392 34
-0.86454076 -4.3944206 -1.7488571 9
-0.92656189 -4.709671 -1.7470388 8
-2.8735278 -14.606009 0.34560874 46
-0.98863751 -5.0251985 -1.7305524 16
-9.3921776 -47.740005 2.2689857 89
-1.062886 -5.4025998 -1.7181416 8
-1.1456343 -5.8232059 -1.7017851 8
-1.2425871 -6.3160124 -1.6851351 13
-1.3572959 -6.8990722 -1.6660212 13
-1.4939237 -7.5935445 -1.6449972 13
-1.6473386 -8.3733454 -1.6078608 12
-0.29351068 -1.4675444 -0.8875612 3
-1.8779458 -9.3896713 -1.5732175 10
-0.30775964 -1.5387888 -0.88171017 16
-2.1324115 -10.661992 -1.5281206 7
-0.32935277 -1.6467538 -0.89293492 12
-2.4901941 -12.450893 -1.4848706 8
-0.35716295 -1.7858038 -0.91475868 9
-2.9595017 -14.797419 -1.4078702 2
-0.39635852 -1.9817805 -0.95663053 3
-2.8895962 -14.447893 -1.0303031 19
-0.78293818 -3.9146671 -1.7774391 7
-2.8739173 -14.369498 -0.68337888 34
-0.82845902 -4.1422696 -1.7644663 8
-2.8715601 -14.357712 -0.33994529 34
-0.8779766 -4.3898559 -1.7481297 8
-0.94061601 -4.7030511 -1.7456708 10
-2.9229288 -14.614555 0.34602651 45
-1.0044197 -5.022068 -1.7305524 14
-9.5566082 -47.782745 2.2724328 100
-1.0791047 -5.3954902 -1.7169501 7
-1.1642997 -5.8214631 -1.7023363 8
-1.2650794 -6.3253584 -1.6886806 14
-1.3770549 -6.8852324 -1.6637156 13
-1.5196904 -7.5984054 -1.6470764 10
-1.6736361 -8.3681288 -1.6078608 10
-0.29589731 -1.4582896 -0.88246024 3
-1.9041593 -9.3843899 -1.5732175 9
-0.31170884 -1.5362146 -0.88073051 16
-2.1629646 -10.659878 -1.5286773 7
-0.33570588 -1.6544808 -0.89762962 12
-2.5265338 -12.451678 -1.4857998 8
-0.36179307 -1.7830479 -0.91386098 9
-3.0012083 -14.791048 -1.4080559 2
-0.40153167 -1.9788944 -0.95577484 3
-2.9338984 -14.45932 -1.0316982 18
-0.79459357 -3.9160466 -1.7790661 7
-2.9195952 -14.388828 -0.6846832 31
-0.84259206 -4.1526003 -1.7698622 7
-2.9144263 -14.363354 -0.34027025 31
-0.89060241 -4.3892131 -1.7488571 11
-2.949017 -14.53383 0 0
-0.95524061 -4.7077737 -1.748407 8
-2.9685001 -14.62985 0.34658358 45
-1.0191936 -5.0229573 -1.7318329 15
-9.6999369 -47.804821 2.2747619 90
-1.0937878 -5.3905845 -1.7163543 8
-1.1824633 -5.8276095 -1.7050927 9
-1.2835077 -6.325593 -1.6896937 14
-1.3985987 -6.8928037 -1.6664823 12
-1.5401251 -7.5902977 -1.6462448 12
-1.6966069 -8.3614969 -1.6074905 12
-0.29927489 -1.4540879 -0.88041985 3
-1.9311537 -9.3829021 -1.5738659 10
-0.31599754 -1.5353382 -0.88073051 15
-2.1931233 -10.655736 -1.5289557 7
-0.33854479 -1.6448886 -0.89293492 12
-2.5628972 -12.452357 -1.4867289 8
-0.36713114 -1.7837812 -0.91475868 9
-3.0481212 -14.809916 -1.4106569 2
-0.4085139 -1.9848478 -0.95919752 3
-2.9778848 -14.468658 -1.0329539 16
-0.80515784 -3.9120228 -1.7782526 7
-2.9629869 -14.396274 -0.68542856 35
-0.85306889 -4.1448083 -1.7675496 7
-2.9593618 -14.37866 -0.34082732 33
-0.90172923 -4.3812346 -1.7466748 8
-0.96686798 -4.6977243 -1.7456708 7
-3.0133736 -14.641088 0.34704781 45
-1.0332164 -5.0200915 -1.7318329 15
-9.8511162 -47.863647 2.2788613 100
-1.108067 -5.383769 -1.7151628 7
-1.1975697 -5.8186359 -1.7034389 10
-1.2972666 -6.3030334 -1.6846286 13
-1.4178416 -6.8888712 -1.6664823 13
-1.5617096 -7.5878835 -1.6466606 14
-1.7215347 -8.3644266 -1.6089717 11
-0.30358794 -1.4531934 -0.88041985 3
-1.9597919 -9.3809948 -1.5745144 8
-0.32090813 -1.5361006 -0.88171017 15
-2.225945 -10.654998 -1.5297908 7
-0.34486824 -1.6507913 -0.89669067 12
-2.6006453 -12.448586 -1.4871936 8
-0.37388402 -1.7896818 -0.9183495 9
-3.0900135 -14.79106 -1.4097279 2
-0.41440126 -1.983627 -0.95919752 3
-3.0265131 -14.487101 -1.0349071 13
-0.81676149 -3.9096167 -1.7782526 7
-3.0118165 -14.416753 -0.68682605 34
-0.86687261 -4.1494851 -1.770633 10
-3.0073266 -14.39526 -0.34143078 35
-0.91662949 -4.3876581 -1.7503121 9
-0.98157078 -4.6985145 -1.7470388 7
-3.0612988 -14.653611 0.34755844 45
-1.0469443 -5.0114398 -1.7299122 13
-10.005752 -47.894833 2.2817495 100
-1.1263787 -5.3916707 -1.7187372 8
-1.2164013 -5.8225846 -1.705644 8
-1.3183364 -6.3105202 -1.6876676 14
-1.4394689 -6.8903489 -1.6678656 13
-1.5846164 -7.5851312 -1.6470764 13
-1.7487564 -8.3708248 -1.6111935 10
-0.30825508 -1.4539691 -0.88144004 3
-1.9888451 -9.3809309 -1.5754871 7
-0.32546443 -1.5351417 -0.88171017 15
-2.2579598 -10.650284 -1.5300691 7
-0.34976473 -1.6497607 -0.89669067 12
-2.6371574 -12.438872 -1.4869612 7
-0.37882179 -1.7868162 -0.9174518 9
-3.1392548 -14.807152 -1.4121431 2
-0.42103481 -1.9859254 -0.96090883 3
-3.0719664 -14.489767 -1.0357441 12
-0.82797897 -3.9053886 -1.7774391 7
-3.056236 -14.415571 -0.68719876 34
-0.87688404 -4.1360626 -1.7660079 7
-3.0533423 -14.401921 -0.34180215 34
-0.92925751 -4.3830962 -1.7495847 7
-3.3445244 -15.775362 0 0
-0.99277878 -4.6827116 -1.7422506 7
-3.1101544 -14.669891 0.34816191 42
-1.0614159 -5.0064578 -1.729272 14
-10.160245 -47.923565 2.2845445 91
-1.1411833 -5.3827019 -1.7169501 9
-1.2320769 -5.8114271 -1.7034389 9
-1.3374555 -6.3084736 -1.6881741 14
-1.4582921 -6.8784323 -1.6660212 13
-1.6091436 -7.5899649 -1.6491555 12
-1.7723626 -8.3598318 -1.6100826 10
-0.3118442 -1.4496846 -0.87939972 3
-2.0170851 -9.3769178 -1.5758114 8
-0.33001783 -1.5341693 -0.88171017 15
-2.2916324 -10.653218 -1.5314608 7
-0.35428676 -1.6469893 -0.89575171 12
-2.6761415 -12.440703 -1.4881228 8
-0.38487339 -1.7891788 -0.91924721 9
-3.1852686 -14.807506 -1.4130721 2
-0.42844597 -1.9917367 -0.96433151 3
-3.1199799 -14.503995 -1.0374182 11
-0.83764166 -3.8939836 -1.7733718 8
-3.1027758 -14.424018 -0.68803722 35
-0.88798779 -4.1280298 -1.7636954 8
-3.1006856 -14.414301 -0.34231278 34
-0.94147474 -4.376677 -1.7481297 5
-1.0102254 -4.6962819 -1.748407 8
-3.1582925 -14.682101 0.34867257 39
-1.0786566 -5.0144005 -1.7331134 13
-10.319617 -47.973286 2.2883644 100
-1.1595581 -5.3904915 -1.7205245 7
-1.2489101 -5.8058662 -1.7028875 7
-1.3565741 -6.3063688 -1.6886806 14
-1.4782851 -6.8721728 -1.6655601 13
-1.631245 -7.5832443 -1.6487397 12
-1.7996389 -8.366065 -1.6123044 9
-0.31515834 -1.4454466 -0.87735933 3
-2.0436831 -9.3731766 -1.5761356 8
-0.33504364 -1.5366489 -0.88366956 15
-2.3222167 -10.650648 -1.5320175 7
-0.35888463 -1.6459935 -0.89575171 12
-2.7121415 -12.439004 -1.4888197 7
-0.39024895 -1.7898433 -0.92014492 9
-3.2283034 -14.806336 -1.4138153 2
-0.43208078 -1.9817014 -0.96005315 3
-3.1651456 -14.516668 -1.0389529 11
-0.84929091 -3.8951998 -1.7749987 6
-3.1472991 -14.434816 -0.6889689 34
-0.90226394 -4.1381559 -1.7690914 6
-3.1443334 -14.421215 -0.34268418 36
-0.95369303 -4.3740311 -1.7481297 6
-1.0209337 -4.682425 -1.7443027 7
-3.2035398 -14.69276 0.34913677 31
-1.0926552 -5.0113688 -1.7331134 11
-10.465886 -48.000889 2.2910662 92
-1.1741998 -5.3853669 -1.7199287 7
-1.2647086 -5.8004775 -1.7023363 9
-1.3741795 -6.302556 -1.6886806 14
-1.499543 -6.8775249 -1.6678656 13
-1.6532485 -7.5824823 -1.6495713 12
-1.8225756 -8.359086 -1.6119342 11
-0.32167435 -1.454583 -0.88348043 3
-2.0736156 -9.3767061 -1.5777569 8
-0.33997798 -1.5373505 -0.88464922 15
-2.3563735 -10.655313 -1.5336876 7
-0.36414811 -1.6466457 -0.89669067 12
-2.7503235 -12.436721 -1.4895166 7
-0.39517188 -1.7869325 -0.91924721 9
-3.2717903 -14.794748 -1.4136294 2
-0.44069105 -1.9927661 -0.96604282 3
-3.2142346 -14.534487 -1.0409061 9
-0.86044991 -3.8908787 -1.7741852 7
-3.1952908 -14.448823 -0.6900869 35
-0.91095167 -4.1192431 -1.7621537 6
-3.1935842 -14.441106 -0.34338048 38
-0.9682759 -4.3784585 -1.7510396 7
-1.0356339 -4.6830454 -1.7456708 8
-3.2527325 -14.70857 0.34974024 25
-1.1091559 -5.0155053 -1.7356743 12
-10.623361 -48.037899 2.294327 92
-1.1893488 -5.3781309 -1.7187372 6
-1.2831588 -5.802331 -1.7039901 7
-1.3924557 -6.2965617 -1.6881741 14
-1.5182614 -6.8654447 -1.6660212 13
-1.6753165 -7.5756335 -1.6491555 14
-1.8473694 -8.3536415 -1.6119342 10
-0.32322627 -1.4436638 -0.87735933 3
-2.0985878 -9.3731718 -1.5780811 8
-0.34362063 -1.5347537 -0.88366956 15
-2.3859918 -10.656838 -1.534801 7
-0.36922941 -1.6491332 -0.89856857 12
-2.7837415 -12.433355 -1.4899812 8
-0.3998487 -1.7858918 -0.91924721 9
-3.3139923 -14.801678 -1.4151157 2
-0.44551161 -1.9898415 -0.96518713 3
-3.2566338 -14.545491 -1.0423012 9
-0.87023401 -3.8868296 -1.7733718 6
-3.2383447 -14.463803 -0.69120491 35
-0.92495835 -4.1312513 -1.7683204 8
-3.2361851 -14.454159 -0.34389114 51
-0.97973537 -4.3759084 -1.7510396 7
-1.0466586 -4.6748157 -1.7436187 7
-3.2960336 -14.721467 0.3502509 12
-1.1206267 -5.0051885 -1.7331134 14
-10.765237 -48.082058 2.2977741 93
-1.2038418 -5.3768616 -1.7193331 6
-1.2983449 -5.7989516 -1.7039901 8
-1.4106261 -6.300447 -1.6902002 14
-1.5366552 -6.8633456 -1.6664823 13
-1.6964259 -7.5769486 -1.650403 14
-1.8709505 -8.3564482 -1.6134154 10
-0.32687593 -1.4410781 -0.87633914 3
-2.1238811 -9.3634253 -1.5774326 8
-0.34790513 -1.5337882 -0.88366956 15
-2.4153039 -10.648203 -1.5345227 7
-0.37266132 -1.6429292 -0.89575171 11
-2.8210876 -12.437157 -1.491375 8
-0.40562499 -1.7882541 -0.92104262 9
-3.3561943 -14.796249 -1.4154873 2
-0.45306596 -1.9974043 -0.96946543 3
-3.3012118 -14.553851 -1.0435568 7
-0.88068056 -3.8826027 -1.7725583 6
-3.282258 -14.47029 -0.69195026 35
-0.93526667 -4.1232529 -1.7660079 7
-3.2796323 -14.458714 -0.34421608 49
-0.99153924 -4.3713388 -1.7503121 7
-1.0622035 -4.6828718 -1.747723 9
-1.1345994 -5.0020394 -1.7331134 15
-10.920236 -48.143379 2.3021531 100
-1.2201191 -5.379065 -1.7211202 6
-1.3158092 -5.8009281 -1.705644 9
-1.4282148 -6.2964835 -1.6902002 14
-1.5579677 -6.8685169 -1.668788 13
-1.7188764 -7.5779057 -1.6516504 14
-1.8942788 -8.3511915 -1.6134154 11
-0.32908681 -1.4299855 -0.87021804 3
-2.1559424 -9.3682461 -1.579378 8
-0.353113 -1.5343869 -0.88464922 15
-2.4500768 -10.646353 -1.5353576 7
-0.37702879 -1.6383085 -0.89387387 11
-2.8588095 -12.422425 -1.4906781 7
-0.41084012 -1.7852293 -0.92014492 9
-3.4062343 -14.801158 -1.4169736 2
-0.45933875 -1.9959711 -0.96946543 4
-3.3531821 -14.570629 -1.0455101 6
-0.89615184 -3.8940611 -1.7790661 7
-3.3339741 -14.487164 -0.69325459 35
-0.95111281 -4.132884 -1.7714039 7
-3.3308687 -14.473671 -0.34481958 40
-1.0052673 -4.3682022 -1.7503121 7
-1.076067 -4.6758485 -1.7463548 10
-8.9101191 -38.717266 0.92239696 10
-1.1520079 -5.005836 -1.7356743 14
-11.086215 -48.173084 2.3052275 100
-1.2365837 -5.3733444 -1.7205245 7
-1.3348893 -5.8005128 -1.7067465 9
-1.4479886 -6.2919655 -1.6902002 13
-1.5791016 -6.8616924 -1.6683269 13
-1.7431133 -7.5743747 -1.6520663 14
-1.921387 -8.3490295 -1.614156 10
-0.33827037 -1.449047 -0.88246024 3
-2.1849144 -9.3595057 -1.5790538 8
-0.35753527 -1.531572 -0.88366956 15
-2.4857624 -10.648247 -1.5367494 7
-0.38458249 -1.6474339 -0.89950752 12
-2.8991764 -12.419186 -1.491375 7
-0.41929057 -1.7961128 -0.92642879 8
-3.4549801 -14.800079 -1.4179025 2
-0.46314129 -1.9839559 -0.96433151 4
-3.4043829 -14.583337 -1.0471842 6
-0.90630418 -3.8823302 -1.7749987 6
-3.383558 -14.494129 -0.69409311 34
-0.96283334 -4.1244841 -1.7690914 7
-3.3813226 -14.484553 -0.34533021 40
-1.0194089 -4.3668365 -1.7510396 7
-1.0911784 -4.6742754 -1.7470388 9
-1.1677285 -5.0021925 -1.7356743 14
-11.25067 -48.194439 2.3079293 94
-1.2547605 -5.375011 -1.7223117 8
-1.3522314 -5.7925463 -1.705644 10
-1.4677483 -6.2873855 -1.6902002 14
-1.6010928 -6.8585925 -1.668788 12
-1.7669002 -7.568861 -1.6520663 14
-1.9471599 -8.3410387 -1.6137856 12
-0.33731744 -1.4280664 -0.87021804 3
-2.2103171 -9.3575945 -1.5797023 8
-0.36114287 -1.5289338 -0.88268989 15
-2.5136309 -10.641703 -1.5367494 7
-0.3884882 -1.6447028 -0.89856857 12
-2.9325929 -12.41542 -1.4918396 7
-0.42152628 -1.7845728 -0.92104262 9
-3.4950881 -14.796798 -1.4184598 2
-0.47041148 -1.9915332 -0.96860981 5
-3.445761 -14.587967 -1.0481608 5
-0.91940504 -3.8923914 -1.7806931 5
-3.4274623 -14.510497 -0.69530427 34
-0.97362792 -4.1219492 -1.7690914 8
-3.4242876 -14.497057 -0.34584084 37
-1.0304096 -4.3623395 -1.7503121 5
-1.1016837 -4.6640863 -1.7443027 9
-1.1803846 -4.9972739 -1.7350341 13
-11.392879 -48.232868 2.3111901 94
-1.2670724 -5.364275 -1.7199287 8
-1.3678335 -5.7908573 -1.7061952 8
-1.4842036 -6.2835212 -1.6902002 14
-1.6203852 -6.8600593 -1.6701713 12
-1.7876089 -7.568017 -1.652898 14
-1.9703454 -8.34165 -1.6148965 8
-0.3475593 -1.452154 -0.88552082 2
-2.23945 -9.3567533 -1.580675 8
-0.36567771 -1.5278555 -0.88268989 15
-2.5461161 -10.638049 -1.5373061 6
-0.3921333 -1.6383908 -0.89575171 11
-2.9694173 -12.406664 -1.4918396 7
-0.42848337 -1.7902668 -0.92463338 8
-3.5431473 -14.803793 -1.4201319 2
-0.47631839 -1.9901286 -0.96860981 5
-3.4918153 -14.58932 -1.0489979 4
-0.92967409 -3.8843157 -1.7782526 5
-3.476546 -14.525522 -0.69651544 34
-0.9854241 -4.1172476 -1.7683204 6
-3.4724054 -14.508223 -0.34635147 37
-1.0420474 -4.353828 -1.7481297 6
-1.1185797 -4.6735911 -1.749091 7
-1.1943246 -4.9900646 -1.7337536 14
-11.55733 -48.288231 2.3154759 95
-1.2847605 -5.367919 -1.7223117 7
-1.3863518 -5.7923827 -1.707849 10
-1.5037413 -6.2828531 -1.6912131 13
-1.6407322 -6.8552213 -1.6701713 12
-1.8114218 -7.5683875 -1.6541454 14
-1.9950869 -8.3357677 -1.6148965 8
-0.34837243 -1.4378029 -0.87735933 3
-2.2674294 -9.3581352 -1.581972 8
-0.37035346 -1.528523 -0.88366956 15
-2.576746 -10.634748 -1.5378628 7
-0.39753866 -1.6407218 -0.89762962 11
-3.0082617 -12.415699 -1.4939303 7
-0.4330602 -1.7873262 -0.92373568 8
-3.5854113 -14.797711 -1.4205035 2
-0.4797456 -1.9800063 -0.96433151 5
-3.5353618 -14.591146 -1.049835 4
-0.93965703 -3.8781528 -1.7766256 5
-3.5217998 -14.535173 -0.69744712 34
-0.99648321 -4.1126862 -1.7675496 5
-3.5190272 -14.523731 -0.34695494 40
-1.0550789 -4.3545222 -1.7495847 7
-1.1316265 -4.6704493 -1.749091 8
-1.2091471 -4.9903927 -1.7350341 14
-11.709066 -48.325668 2.31883 96
-1.3001951 -5.3661661 -1.7229075 8
-1.4034272 -5.7922254 -1.7089516 8
-1.5212804 -6.2786293 -1.6912131 14
-1.6589526 -6.8468304 -1.6692491 13
-1.8339316 -7.5690036 -1.6553929 14
-2.0197453 -8.3358946 -1.6160074 8
-0.35443494 -1.4451782 -0.88246024 2
-2.2930832 -9.3498497 -1.5816478 8
-0.37129787 -1.5139352 -0.87583214 14
-2.6064339 -10.627511 -1.5378628 6
-0.40211886 -1.6396053 -0.89762962 11
-3.0433941 -12.409179 -1.4941626 7
-0.43847537 -1.7878457 -0.92463338 8
-3.6333609 -14.814718 -1.4231044 2
-0.48613411 -1.9821702 -0.96604282 5
-3.5817969 -14.604469 -1.0515091 4
-0.95091838 -3.8772883 -1.7774391 7
-3.5676105 -14.546626 -0.6984719 32
-1.0084037 -4.1116796 -1.7683204 7
-3.5652866 -14.53715 -0.34751201 37
-1.0672349 -4.3515587 -1.7495847 6
-1.145112 -4.6690965 -1.7497751 8
-1.2230783 -4.9869967 -1.7350341 13
-11.858248 -48.35099 2.321625 96
-1.31563 -5.3643684 -1.7235032 8
-1.4195967 -5.7882838 -1.7089516 6
-1.5369643 -6.2668405 -1.6891872 13
-1.6799203 -6.8497314 -1.6710935 14
-1.8536631 -7.5581527 -1.6541454 14
-2.0430157 -8.3302212 -1.6160074 8
-0.35706249 -1.4374421 -0.87837952 3
-2.3217661 -9.3468361 -1.5822963 8
-0.37704921 -1.5179036 -0.87877119 14
-2.640342 -10.629341 -1.5392545 6
-0.40783334 -1.6418326 -0.89950752 12
-3.0816362 -12.405878 -1.4948595 7
-0.44377807 -1.7865369 -0.92463338 8
-3.6753807 -14.796142 -1.4223613 2
-0.49201319 -1.9807191 -0.96604282 7
-3.6289611 -14.609268 -1.0526252 3
-0.96197784 -3.8726766 -1.7766256 8
-3.6165349 -14.559243 -0.69958991 34
-1.0205988 -4.1086693 -1.7683204 10
-3.6141877 -14.549794 -0.34806907 35
-1.0801414 -4.3483729 -1.7495847 6
-1.1585075 -4.6638541 -1.749091 8
-1.2392399 -4.9888625 -1.7369548 11
-12.022366 -48.398968 2.3256311 96
-1.3315406 -5.3604412 -1.7235032 8
-1.4376916 -5.7877779 -1.7100542 10
-1.5597495 -6.2791519 -1.6937457 14
-1.7002364 -6.8447165 -1.6710935 12
-1.8751372 -7.5488224 -1.6533138 15
-2.0696182 -8.3317528 -1.6174887 8
-0.36157656 -1.4363133 -0.87837952 2
-2.3525639 -9.3452368 -1.5832689 7
-0.38181597 -1.5167115 -0.87877119 14
-2.673722 -10.620994 -1.5392545 6
-0.41212708 -1.6371183 -0.89762962 11
-3.1220498 -12.401915 -1.4955564 7
-0.45026106 -1.7886002 -0.92642879 8
-3.7203875 -14.778728 -1.421804 2
-0.49823338 -1.9791636 -0.96604282 8
-3.678736 -14.613274 -1.0537413 3
-0.97547758 -3.8749506 -1.7790661 7
-3.6671333 -14.567183 -0.70052159 34
-1.0344026 -4.1090221 -1.7698622 8
-3.6647604 -14.557757 -0.3485333 35
-1.0951613 -4.350378 -1.751767 7
-1.1717772 -4.6547241 -1.7470388 8
-1.2539816 -4.9812698 -1.7356743 14
-12.194352 -48.440392 2.3294508 97
-1.3474422 -5.352529 -1.7223117 7
-1.4549285 -5.7795043 -1.7089516 9
-1.5785236 -6.2704687 -1.6927327 14
-1.7212563 -6.8374543 -1.6706324 13
-1.9021863 -7.5561738 -1.6562245 14
-2.097702 -8.3328333 -1.6189699 8
-0.36685991 -1.440299 -0.88144004 3
-2.3801129 -9.3443689 -1.5842416 7
-0.38604993 -1.5156394 -0.87877119 14
-2.703371 -10.613486 -1.5392545 6
-0.41669717 -1.6359611 -0.89762962 11
-3.1561801 -12.391223 -1.4953241 7
-0.45260715 -1.7769444 -0.92104262 7
-3.7685244 -14.795299 -1.4244049 2
-0.50286591 -1.974261 -0.96433151 8
-3.7234693 -14.618411 -1.0548574 3
-0.98629463 -3.8722117 -1.7790661 6
-3.7137158 -14.580119 -0.70163959 34
-1.044962 -4.102541 -1.7683204 8
-3.7118149 -14.572656 -0.34913677 35
-1.1063859 -4.3436923 -1.7503121 6
-1.1861627 -4.6568975 -1.749091 7
-1.2688224 -4.981421 -1.7369548 14
-12.348314 -48.479717 2.3329914 97
-1.3628552 -5.3505955 -1.7229075 7
-1.4710623 -5.7754188 -1.7089516 8
-1.5965055 -6.267911 -1.6932392 14
-1.742745 -6.8420506 -1.672938 12
-1.9232796 -7.5508327 -1.6562245 15
-2.1175678 -8.313611 -1.6163778 8
-0.36572942 -1.4192791 -0.86919785 3
-2.4057055 -9.3357744 -1.5839174 8
-0.39245635 -1.5229977 -0.88366956 15
-2.7399178 -10.632746 -1.5431514 7
-0.42258596 -1.6399211 -0.90044647 11
-3.1922576 -12.388132 -1.496021 6
-0.46158132 -1.7912496 -0.92912191 8
-3.8128073 -14.796287 -1.4255196 2
-0.50837708 -1.9728491 -0.96433151 8
-3.7682598 -14.623412 -1.0559735 3
-0.99619222 -3.8659036 -1.7774391 6
-3.7613959 -14.596776 -0.70294392 32
-1.0573354 -4.1031809 -1.7698622 7
-3.7574842 -14.581595 -0.349601 40
-1.1199061 -4.3459978 -1.7524946 6
-1.1972867 -4.6462874 -1.7463548 9
-1.283201 -4.9796929 -1.737595 11
-12.503588 -48.52243 2.3367178 97
-1.378268 -5.3486176 -1.7235032 7
-1.4857453 -5.7657032 -1.7072978 8
-1.6140026 -6.2634282 -1.6932392 14
-1.7618449 -6.8371572 -1.672938 13
-1.9438698 -7.5435381 -1.6558087 14
-2.1432276 -8.3171816 -1.6182293 8
-0.37210989 -1.4265103 -0.87429875 2
-2.4338927 -9.3305054 -1.5842416 8
-0.39477292 -1.5133908 -0.87877119 13
-2.769954 -10.61882 -1.5423163 7
-0.42655841 -1.6352426 -0.89856857 11
-3.2325096 -12.392061 -1.4976472 7
-0.46869844 -1.7967895 -0.93271273 8
-3.8602104 -14.798397 -1.42682 2
-0.51285958 -1.9660845 -0.96176451 8
-3.8141496 -14.621819 -1.056671 3
-1.0085806 -3.8664668 -1.7790661 7
-3.8077145 -14.597151 -0.70350295 35
-1.0685735 -4.0964541 -1.7683204 7
-3.8077977 -14.597469 -0.3502509 40
-1.1323258 -4.3408532 -1.751767 7
-3.8355789 -14.703971 0 3
-1.2139134 -4.6536255 -1.7504591 9
-1.2965356 -4.9703636 -1.7356743 13
-12.666664 -48.558578 2.3402584 97
-1.3955772 -5.3500466 -1.7252905 7
-1.5057576 -5.7724309 -1.7106054 8
-1.6325793 -6.2586117 -1.6932392 9
-1.7826146 -6.8337827 -1.6733991 14
-1.9667372 -7.5396299 -1.6562245 12
-2.1688879 -8.3145895 -1.6189699 8
-0.37565318 -1.4238024 -0.87327856 3
-2.4629598 -9.3351212 -1.5861871 8
-0.40211126 -1.524084 -0.88562894 15
-2.802628 -10.622534 -1.5439864 7
-0.43157369 -1.6357526 -0.89950752 11
-3.2681158 -12.386827 -1.4981117 7
-0.47006673 -1.7816491 -0.92553109 7
-3.9020281 -14.789485 -1.4270059 2
-0.51788676 -1.9628967 -0.96090883 8
-3.8590384 -14.626545 -1.0577872 3
-1.0198399 -3.8654017 -1.7798796 7
-3.8525398 -14.601914 -0.70424825 35
-1.0823628 -4.1023765 -1.7721747 7
-3.8541574 -14.608045 -0.35076153 37
-1.1458691 -4.3430781 -1.7539495 7
-1.2264247 -4.6484003 -1.7497751 7
-1.3104104 -4.9667234 -1.7356743 12
-12.82464 -48.608013 2.3443577 96
-1.4109989 -5.3479748 -1.7258862 6
-1.5218713 -5.7682037 -1.7106054 8
-1.6525183 -6.2633824 -1.6957717 10
-1.8016911 -6.8287778 -1.6733991 13
-1.986786 -7.5303254 -1.6553929 12
-2.1941037 -8.316102 -1.6204511 8
-0.37790397 -1.4143056 -0.86817765 3
-2.4932938 -9.331151 -1.5868356 8
-0.40419668 -1.512706 -0.87975085 14
-2.8349633 -10.60985 -1.5434297 6
-0.43671042 -1.6343887 -0.89950752 10
-3.3085523 -12.382257 -1.4988086 7
-0.47566161 -1.7801635 -0.92553109 7
-3.9505277 -14.784849 -1.427749 2
-0.52358413 -1.9595135 -0.96005315 8
-3.9116652 -14.639406 -1.0596008 4
-1.0315067 -3.8604138 -1.7790661 5
-3.9030354 -14.60711 -0.70508677 35
-1.0952454 -4.0989556 -1.7721747 9
-3.9067407 -14.620976 -0.351365 37
-1.1590266 -4.337657 -1.753222 7
-1.2405368 -4.6427088 -1.749091 8
-1.3284529 -4.971735 -1.7388755 13
-12.996366 -48.638897 2.3478048 96
-1.4273003 -5.341671 -1.7252905 7
-1.5404813 -5.7652516 -1.7111567 6
-1.6696898 -6.2488136 -1.6932392 13
-1.8231354 -6.8230839 -1.6733991 13
-2.0139685 -7.5372763 -1.6583036 16
-2.2197113 -8.3072691 -1.6200808 8
-0.38748661 -1.4331053 -0.88041985 3
-2.5219989 -9.3275223 -1.5874841 8
-0.40822807 -1.5098169 -0.87877119 14
-2.8684986 -10.609039 -1.544543 5
-0.44340149 -1.6399044 -0.90326327 11
-3.3452766 -12.372385 -1.4988086 7
-0.48187432 -1.7821949 -0.9273265 7
-3.9959369 -14.77883 -1.4283063 2
-0.52892399 -1.9562064 -0.95919752 8
-1.0420024 -3.8538086 -1.7774391 4
-3.9515729 -14.614751 -0.70601845 34
-1.1069207 -4.0939064 -1.7714039 7
-3.9558456 -14.630552 -0.35187563 35
-1.1748092 -4.3449898 -1.757587 7
-1.2543066 -4.6390076 -1.749091 8
-1.343693 -4.9696007 -1.7395157 12
-13.163045 -48.683052 2.3518109 96
-1.4436413 -5.3392558 -1.7258862 7
-1.556075 -5.7550879 -1.7095029 8
-1.690748 -6.253171 -1.6957717 14
-1.8443878 -6.8214021 -1.6743213 14
-2.0327487 -7.5180483 -1.6553929 15
-2.2464015 -8.3082361 -1.621562 7
-0.39103344 -1.4303584 -0.87939972 3
-2.5485568 -9.3223476 -1.5878083 8
-0.41290247 -1.510353 -0.87975085 14
-2.8981133 -10.600987 -1.544543 6
-0.4465822 -1.6335497 -0.90044647 11
-3.3787661 -12.359163 -1.4983441 6
-0.49014834 -1.79291 -0.93361044 8
-4.0361414 -14.763771 -1.4279348 2
-0.53486139 -1.9564655 -0.96005315 8
-1.0522784 -3.8491213 -1.7766256 6
-3.9965844 -14.619076 -0.7067638 34
-1.1202954 -4.0979199 -1.7744873 7
-4.0030136 -14.642593 -0.3524327 33
-1.1834991 -4.3291125 -1.7524946 7
-10.611477 -38.815643 0 6
-1.2702298 -4.6463642 -1.7531953 7
-1.3575655 -4.9658289 -1.7395157 14
-13.321596 -48.72897 2.3558171 96
-1.4570353 -5.3296785 -1.724099 7
-1.5756891 -5.763701 -1.7133619 8
-1.7097342 -6.254024 -1.6972913 14
-1.8634295 -6.8162251 -1.6743213 13
-2.0563145 -7.5217776 -1.657472 15
-2.2685571 -8.2981386 -1.6208215 7
-0.3941097 -1.4259447 -0.87735933 3
-2.5766828 -9.3228025 -1.5891052 8
-0.41711858 -1.509194 -0.87975085 14
-2.9308712 -10.604306 -1.5462132 5
-0.45208302 -1.6357003 -0.90232432 11
-3.4196162 -12.372656 -1.5011317 6
-0.49515316 -1.7915342 -0.93361044 8
-4.0815978 -14.767798 -1.4294211 2
-0.54176748 -1.9601914 -0.96262014 7
-4.0500059 -14.653494 -1.0630887 20
-1.0630231 -3.8461678 -1.7766256 6
-4.0437794 -14.630966 -0.70788181 34
-1.1292764 -4.0858817 -1.770633 6
-4.0502796 -14.654484 -0.35298976 33
-1.1970725 -4.3311777 -1.7546771 7
-10.792822 -39.049957 0 6
-1.2831999 -4.6427989 -1.7531953 7
-1.3719321 -4.9638448 -1.7401559 10
-13.47412 -48.751274 2.3587053 64
-1.4734387 -5.3311095 -1.7258862 9
-1.591266 -5.7574253 -1.7128105 10
-1.7256458 -6.2436304 -1.6957717 14
-1.8824567 -6.8109946 -1.6743213 13
-2.0752268 -7.5084639 -1.6558087 13
-2.2932918 -8.2974539 -1.6219324 7
-0.39994174 -1.4314657 -0.88144004 2
-2.6016448 -9.3117695 -1.5884567 8
-0.42226979 -1.511382 -0.88171017 14
-2.9599395 -10.594173 -1.5459348 5
-0.45522347 -1.6293292 -0.89950752 10
-3.4541538 -12.363058 -1.5011317 6
-0.50015414 -1.7901446 -0.93361044 8
-4.1303229 -14.783194 -1.4320221 2
-0.55064428 -1.9708582 -0.96860981 7
-4.0957422 -14.659421 -1.0643443 38
-1.0752344 -3.8484635 -1.7790661 7
-4.0894594 -14.636934 -0.70872027 34
-1.1411785 -4.0844898 -1.7714039 7
-4.097105 -14.664299 -0.3535004 37
-1.2076589 -4.3224354 -1.7524946 6
-10.886221 -38.963806 0 6
-1.29616 -4.6391973 -1.7531953 9
-1.3862984 -4.9618192 -1.7407962 14
-13.633323 -48.796192 2.3627114 64
-1.4878064 -5.3251357 -1.7252905 5
-1.6057856 -5.7474046 -1.7111567 10
-1.7415127 -6.2331967 -1.6942523 12
-1.9019929 -6.8075857 -1.6747825 13
-2.097239 -7.5064077 -1.6566404 14
-2.3185692 -8.2985897 -1.6234136 6
-0.40184817 -1.4219958 -0.87633914 3
-2.6319454 -9.3135052 -1.590078 7
-0.42722645 -1.5118003 -0.88268989 14
-2.9924374 -10.589156 -1.5464915 6
-0.46149644 -1.6330694 -0.90232432 10
-3.4929814 -12.360401 -1.5020609 7
-0.50692147 -1.7938123 -0.93630356 8
-4.1720014 -14.763208 -1.4312789 2
-0.5604223 -1.9831324 -0.97545511 6
-4.1430173 -14.660644 -1.0653208 24
-1.0871451 -3.8470144 -1.7798796 8
-4.1399326 -14.649729 -0.70993143 34
-1.1558018 -4.0899653 -1.7752581 7
-4.1476655 -14.677092 -0.35410389 40
-1.2209851 -4.3206258 -1.753222 6
-11.011571 -38.965977 0 6
-1.3094079 -4.6335225 -1.7525113 8
-1.3994684 -4.9522142 -1.7388755 12
-13.805209 -48.851654 2.3673699 63
-1.5061959 -5.3298841 -1.7282692 6
-1.6243998 -5.7481651 -1.7128105 8
-1.7621038 -6.2354498 -1.6962782 14
-1.9216537 -6.8000398 -1.6743213 12
-2.1221616 -7.5095649 -1.6587194 13
-2.3421123 -8.2878914 -1.6226729 8
-0.40984729 -1.4340292 -0.88450062 3
-2.6606522 -9.3094501 -1.5907265 7
-0.42979357 -1.5038201 -0.87877119 13
-3.0271082 -10.591657 -1.5481616 6
-0.46536928 -1.6282971 -0.90044647 10
-3.52964 -12.349983 -1.5020609 7
-0.51076823 -1.787145 -0.93361044 8
-4.2212586 -14.769912 -1.4331367 2
-0.57276177 -2.0040565 -0.9865787 4
-1.1025712 -3.857826 -1.7863873 7
-4.1883221 -14.654669 -0.71076995 32
-1.1664103 -4.0811949 -1.7729455 7
-4.1988869 -14.691635 -0.35475379 37
-1.2332873 -4.3151927 -1.7524946 6
-11.123289 -38.919674 0 13
-1.324183 -4.6332312 -1.7538793 7
-1.4162384 -4.955327 -1.7414364 11
-13.96821 -48.873871 2.3704443 63
-1.5235772 -5.3308988 -1.7300565 7
-1.6414478 -5.74332 -1.7128105 8
-1.7800653 -6.228334 -1.6957717 13
-1.9444953 -6.8036642 -1.6766269 13
-2.1433585 -7.4994731 -1.6578878 14
-2.3677728 -8.2846851 -1.6234136 7
-0.41146356 -1.4246157 -0.87939972 3
-2.6888289 -9.3095684 -1.5920235 6
-0.43495899 -1.5059643 -0.88073051 13
-3.0577729 -10.586967 -1.5487182 6
-0.47089455 -1.6303843 -0.90232432 10
-3.5646651 -12.341987 -1.5022931 7
-0.51625276 -1.7874287 -0.93450814 8
-4.2624874 -14.758066 -1.4331367 2
-0.58738488 -2.0337105 -1.0019807 3
-4.2445493 -14.695959 -1.0696458 3
-1.1123261 -3.8512213 -1.7847604 7
-4.2347727 -14.662109 -0.71170163 7
-1.1778027 -4.0779219 -1.7729455 8
-4.2465553 -14.702904 -0.35531083 35
-1.2484344 -4.3224711 -1.7568594 7
-11.264673 -39.001823 0 6
-1.3371162 -4.6295152 -1.7538793 8
-1.4300709 -4.9513531 -1.7414364 12
-14.127921 -48.915287 2.3743575 31
-1.5358092 -5.317452 -1.7270777 7
-1.6590801 -5.7442551 -1.7144643 10
-1.7990618 -6.2289152 -1.6972913 14
-1.9629471 -6.7963376 -1.6761658 13
-2.1642926 -7.4934587 -1.6578878 13
-2.3919897 -8.2818174 -1.6241542 7
-0.41158465 -1.4102503 -0.87123823 2
-2.7153687 -9.3039179 -1.5923477 7
-0.44013974 -1.5080913 -0.88268989 14
-3.08899 -10.584091 -1.5495533 6
-0.47643507 -1.6324533 -0.90420222 10
-3.6018991 -12.341518 -1.5034547 7
-0.52074146 -1.7842646 -0.93361044 9
-4.3126092 -14.77669 -1.4361093 2
-0.59407467 -2.0355327 -1.0036919 3
-4.2838945 -14.678303 -1.0692272 2
-1.1210288 -3.8410842 -1.7815065 7
-4.3406281 -14.872694 -0.72250897 1
-1.1881517 -4.0710735 -1.7714039 8
-4.2943192 -14.714021 -0.35586789 35
-1.2568465 -4.3064494 -1.751767 6
-11.407163 -39.085411 0 14
-1.3500391 -4.6257634 -1.7538793 7
-1.4444228 -4.9491591 -1.7420766 13
-14.299166 -48.994549 2.3801336 31
-1.551722 -5.3168082 -1.7282692 7
-1.6767305 -5.7451363 -1.7161182 11
-1.815365 -6.2201524 -1.6962782 14
-1.9846447 -6.8001704 -1.6784714 13
-2.1857579 -7.4892635 -1.6583036 12
-2.4145567 -8.2732182 -1.6237838 8
-0.41844872 -1.4171995 -0.87633914 3
-2.7473786 -9.3048048 -1.5939689 7
-0.44536915 -1.5083735 -0.88366956 13
-3.1272733 -10.59143 -1.5520585 7
-0.48006102 -1.6258677 -0.90138543 10
-3.6412158 -12.332047 -1.5036869 7
-0.52533215 -1.7791916 -0.93181503 9
-4.3612661 -14.770709 -1.4368525 2
-0.60353798 -2.0440588 -1.0088259 3
-4.3401566 -14.699215 -1.0717385 3
-1.1341252 -3.8410482 -1.7831334 7
-4.3658323 -14.786174 -0.71896863 1
-1.2019807 -4.0708609 -1.7729455 8
-4.3495827 -14.731139 -0.35661066 37
-1.2735349 -4.3132 -1.756132 6
-11.540091 -39.083908 0 7
-1.3656291 -4.625104 -1.7552474 8
-1.461037 -4.9482312 -1.7433571 11
-14.479039 -49.037521 2.3844194 31
-1.5694989 -5.3155689 -1.7294607 8
-1.6925935 -5.7324648 -1.7139131 7
-1.8365408 -6.2199855 -1.6977978 13
-2.0026915 -6.7827034 -1.6757047 13
-2.2081673 -7.4786072 -1.657472 10
-2.4427621 -8.2731314 -1.6252651 8
-0.42289639 -1.4176739 -0.87735933 3
-2.7705312 -9.2876406 -1.5923477 8
-0.45107484 -1.5121365 -0.8866086 14
-3.1545732 -10.575064 -1.550945 6
-0.48611379 -1.6295974 -0.90420222 10
-3.6762071 -12.323734 -1.5039192 7
-0.52978766 -1.776005 -0.93091732 9
-4.403635 -14.762289 -1.437224 2
-0.60769349 -2.0371685 -1.006259 3
-4.4051409 -14.767336 -1.077598 6
-1.144847 -3.8378661 -1.7831334 7
-4.3979688 -14.743294 -0.71747798 1
-1.2154541 -4.0745621 -1.776029 7
-4.3958464 -14.736179 -0.35702845 34
-1.2845095 -4.306056 -1.7546771 6
-11.654334 -39.068779 0 7
-1.377465 -4.6176705 -1.7538793 8
-1.4737662 -4.9405007 -1.7420766 14
-1.5859739 -5.3166542 -1.731248 8
-1.7107931 -5.735085 -1.7161182 10
-1.8544562 -6.2166862 -1.6983042 14
-2.0244062 -6.7864089 -1.6780103 11
-2.2296021 -7.4742866 -1.6578878 10
-2.4669793 -8.2700453 -1.6260056 7
-0.42710084 -1.4164129 -0.87735933 3
-2.8014944 -9.2907162 -1.5942931 7
-0.45455268 -1.5074527 -0.88464922 12
-3.1865079 -10.567554 -1.5512234 6
-0.49094677 -1.628148 -0.90420222 10
-3.716197 -12.324184 -1.505313 6
-0.53763461 -1.7829809 -0.93540585 10
-4.4468412 -14.747252 -1.4370382 2
-0.6137352 -2.0353565 -1.006259 3
-4.4581528 -14.784764 -1.0798302 4
-1.157284 -3.8379509 -1.7847604 7
-4.4457307 -14.743568 -0.71813011 1
-1.2270055 -4.069171 -1.7752581 7
-4.4476318 -14.749872 -0.35767835 34
-1.2994316 -4.3093605 -1.757587 7
-11.808887 -39.162323 0 7
-1.3895321 -4.6081653 -1.7518271 9
-1.4911535 -4.9451766 -1.7452778 13
-1.6000881 -5.3064413 -1.7294607 7
-1.7255818 -5.7226214 -1.7139131 7
-1.8717762 -6.2074518 -1.6972913 13
-2.0450947 -6.7822356 -1.6784714 12
-2.2523336 -7.469511 -1.6583036 12
-2.492641 -8.2664528 -1.6267463 7
-0.43130153 -1.4151394 -0.87735933 3
-2.8301988 -9.2861395 -1.5949416 8
-0.45800671 -1.5027616 -0.88268989 13
-3.2207355 -10.567525 -1.5526152 6
-0.4957754 -1.6266841 -0.90420222 10
-3.7521679 -12.311204 -1.5050808 6
-0.54240143 -1.7796683 -0.93450814 10
-4.4958024 -14.751136 -1.4387102 2
-0.61977154 -2.0335267 -1.006259 2
-4.5066533 -14.786738 -1.0809463 4
-1.1676011 -3.8310049 -1.7831334 7
-4.4906211 -14.734136 -0.7183165 2
-1.2379974 -4.0619817 -1.7737164 7
-4.5001197 -14.7653 -0.35837466 33
-1.3132982 -4.3090506 -1.7590419 7
-11.948355 -39.203636 0 14
-1.4048424 -4.6094151 -1.7538793 7
-1.5025052 -4.9298558 -1.7414364 14
-1.6141558 -5.2961917 -1.7276735 6
-1.7442349 -5.7229934 -1.7155669 8
-1.8913139 -6.2055726 -1.6983042 14
-2.0652089 -6.7761378 -1.6784714 14
-2.2733455 -7.459053 -1.657472 11
-2.519449 -8.2665405 -1.6282275 7
-0.43701762 -1.4187856 -0.88041985 3
-2.8589008 -9.2814732 -1.5955901 8
-0.46195021 -1.4997296 -0.88171017 12
-3.2538247 -10.563601 -1.5534501 5
-0.50007987 -1.6235182 -0.90326327 9
-3.7904339 -12.305712 -1.5057777 6
-0.54662722 -1.7746351 -0.93271273 10
-4.5401363 -14.739635 -1.4388961 2
-0.62793094 -2.0385892 -1.0096816 2
-1.1784248 -3.8257775 -1.78232 7
-4.542552 -14.747477 -0.71962082 2
-1.2516739 -4.0635819 -1.776029 6
-4.5527382 -14.780546 -0.35907099 33
-1.3244324 -4.2997932 -1.7568594 6
-11.196218 -36.348724 0 5
-1.4201723 -4.6106153 -1.7559314 8
-1.5199145 -4.9344301 -1.7446376 15
-1.6315489 -5.2968526 -1.7294607 7
-1.7606418 -5.7159553 -1.7150156 7
-1.910857 -6.2036319 -1.6993172 14
-2.0847323 -6.7681208 -1.6780103 12
-2.2994981 -7.4653621 -1.6603827 9
-2.5428081 -8.2552719 -1.6274869 7
-0.44122529 -1.4174826 -0.88041985 3
-2.8899462 -9.284256 -1.5975355 7
-0.46847084 -1.5050118 -0.88562894 13
-3.2857418 -10.555791 -1.5537285 5
-0.50646925 -1.6270857 -0.90608013 10
-3.8310616 -12.307688 -1.5074037 6
-0.55135906 -1.7712989 -0.93181503 10
-4.5879927 -14.739408 -1.4401965 2
-0.63505131 -2.0401692 -1.011393 2
-4.6067724 -14.79974 -1.0838761 6
-1.191943 -3.8292425 -1.7855738 7
-4.592226 -14.75301 -0.72055244 2
-1.2609828 -4.0510397 -1.7721747 9
-4.6066751 -14.799428 -0.35986015 32
-1.3382916 -4.2994027 -1.7583144 7
-11.24636 -36.130112 0 5
-1.4332875 -4.6045866 -1.7552474 7
-1.5345485 -4.9298987 -1.7446376 14
-1.6512297 -5.304749 -1.733631 6
-1.7775936 -5.7107062 -1.7150156 7
-1.9292551 -6.1979346 -1.6993172 11
-2.1053827 -6.7637634 -1.6784714 12
-2.3198938 -7.4529028 -1.6591353 13
-2.5707955 -8.2589502 -1.6297088 7
-0.44363436 -1.4113218 -0.87735933 3
-2.9152696 -9.2742672 -1.5972112 8
-0.47214893 -1.5020343 -0.88464922 12
-3.3146124 -10.544685 -1.5534501 5
-0.51101094 -1.6256649 -0.90608013 10
-3.8672032 -12.302627 -1.5081006 6
-0.55523145 -1.7663424 -0.93001962 10
-4.6249547 -14.713242 -1.4388961 2
-0.64020401 -2.0366633 -1.0105373 1
-4.6582537 -14.819174 -1.0862478 4
-1.20044 -3.818927 -1.78232 7
-4.6405954 -14.762999 -0.72167045 2
-1.2733973 -4.051024 -1.7737164 8
-4.6563792 -14.81321 -0.36051005 31
-1.3508513 -4.2974257 -1.7590419 7
-11.295032 -35.932571 0 16
-1.4455767 -4.5987735 -1.7545633 7
-1.5483094 -4.9255943 -1.7446376 12
-1.6631744 -5.2910109 -1.7306522 8
-1.7935339 -5.7057199 -1.7150156 7
-1.9459753 -6.1906772 -1.6988107 13
-2.1260133 -6.7634273 -1.6798548 12
-2.3401105 -7.4445291 -1.6587194 13
-2.5944381 -8.2536144 -1.630079 8
-0.4460125 -1.4051585 -0.87429875 3
-2.9441421 -9.2754946 -1.5988325 7
-0.47686905 -1.5023719 -0.88562894 12
-3.3464425 -10.542938 -1.5545635 6
-0.51608288 -1.6259148 -0.90701908 10
-3.9009426 -12.289886 -1.5078684 6
-0.56016183 -1.7647851 -0.93001962 10
-4.6744585 -14.726841 -1.441497 2
-0.65299863 -2.0572667 -1.0216608 0
-4.7243662 -14.884075 -1.0919678 4
-1.213311 -3.8225257 -1.7855738 7
-4.693892 -14.788066 -0.72353381 2
-1.2852633 -4.049211 -1.7744873 10
-4.7080107 -14.832547 -0.36129922 32
-1.3634102 -4.2954125 -1.7597693 7
-11.346319 -35.746483 0 10
-1.4589819 -4.5965099 -1.7552474 7
-1.5626315 -4.9230571 -1.7452778 14
-1.6785208 -5.2881651 -1.731248 8
-1.8135318 -5.7135162 -1.7188746 8
-1.9650114 -6.1907516 -1.7003303 11
-2.1431258 -6.7518992 -1.6784714 12
-2.3632579 -7.4454241 -1.6603827 14
-2.6180711 -8.24821 -1.6304493 7
-0.45490739 -1.4185717 -0.88348043 3
-2.9710474 -9.2648392 -1.5985082 8
-0.48132458 -1.5009503 -0.88562894 12
-3.3831522 -10.549936 -1.5570687 5
-0.51982635 -1.6210133 -0.90514117 10
-3.9367836 -12.276366 -1.5076361 5
-0.56321257 -1.7563078 -0.92642879 10
-4.718133 -14.712907 -1.441497 2
-0.65302765 -2.0363851 -1.0122485 0
-4.7733812 -14.885191 -1.093084 4
-1.2235314 -3.8154292 -1.7839469 7
-4.7468991 -14.80261 -0.7249313 2
-1.2972718 -4.0453796 -1.7744873 8
-4.762989 -14.852784 -0.36213481 32
-1.3750112 -4.2878003 -1.7583144 7
-11.412024 -35.586964 0 5
-1.4737613 -4.5957398 -1.7566154 8
-1.5772316 -4.9183993 -1.7452778 11
-1.6942036 -5.2831616 -1.731248 6
-1.8287148 -5.7026181 -1.7172208 8
-1.9851434 -6.1904211 -1.7018497 10
-2.166121 -6.754777 -1.680777 12
-2.3853385 -7.4383793 -1.6603827 13
-2.6443329 -8.2460203 -1.6315602 8
-0.45303842 -1.3992932 -0.87225842 3
-2.9999475 -9.2658949 -1.6001295 8
-0.48444 -1.4962827 -0.88366956 13
-3.4113801 -10.536679 -1.556512 4
-0.52652675 -1.6262754 -0.90889692 9
-3.9753335 -12.278554 -1.5092622 6
-0.56811494 -1.7547282 -0.92642879 10
-4.7653346 -14.718619 -1.4433548 2
-0.67430258 -2.0827086 -1.0362071 0
-1.2330557 -3.808521 -1.78232 7
-4.8442163 -14.962259 -0.73340952 1
-1.3085636 -4.0417414 -1.7744873 7
-4.8149171 -14.871764 -0.36292398 33
-1.3887012 -4.2892609 -1.7604969 6
-11.45468 -35.379906 0 10
-1.488326 -4.5969706 -1.7586676 8
-1.589793 -4.9103703 -1.7439973 12
-1.7095385 -5.2802262 -1.7318437 6
-1.846409 -5.7029762 -1.7188746 8
-2.0036144 -6.1885347 -1.7028627 14
-2.1825776 -6.7412953 -1.6789325 12
-2.4048958 -7.4279666 -1.6595511 13
-2.6691658 -8.2442141 -1.6326711 8
-0.46117726 -1.4093075 -0.87939972 3
-3.0296562 -9.2582998 -1.6004537 8
-0.49076515 -1.4997249 -0.8866086 12
-3.443233 -10.522145 -1.5559553 4
-0.53163326 -1.6246133 -0.90889692 9
-4.0126524 -12.262229 -1.5087976 7
-0.57362473 -1.7529348 -0.92642879 11
-4.8134089 -14.709254 -1.4439123 2
-1.1716559 -3.5804529 -1.7832004 3
-4.855422 -14.837641 -1.0916889 2
-1.2461509 -3.8081017 -1.7839469 7
-4.992476 -15.256464 -0.74859571 4
-1.3224025 -4.0411181 -1.776029 7
-4.8734293 -14.89267 -0.36380598 33
-1.4004312 -4.2795653 -1.7583144 5
-11.541514 -35.269611 0 5
-1.5021758 -4.590486 -1.7579836 8
-1.6099257 -4.9197578 -1.7491193 10
-1.7267121 -5.2766442 -1.7324395 7
-1.8631204 -5.6934934 -1.717772 7
-2.0230465 -6.18221 -1.7028627 14
-2.2055609 -6.7399545 -1.6803159 13
-2.4300449 -7.4259529 -1.6607985 11
-2.6950526 -8.2357874 -1.6326711 8
-0.4629527 -1.4014804 -0.87531894 3
-3.0554984 -9.2498035 -1.6004537 8
-0.49604508 -1.5016599 -0.88856792 12
-3.4738455 -10.516251 -1.556512 4
-0.53395236 -1.6164153 -0.90514117 9
-4.0481253 -12.254747 -1.5092622 5
-0.58188111 -1.7615082 -0.93181503 14
-4.8519678 -14.688191 -1.4431691 2
-1.1822169 -3.5788836 -1.7840561 3
-4.9037213 -14.844863 -1.0932235 3
-1.255061 -3.7994022 -1.7815065 8
-5.0275412 -15.219699 -0.74747771 5
-1.3348401 -4.0409145 -1.7775706 8
-4.9269142 -14.915075 -0.36468801 29
-1.4135453 -4.2791758 -1.7597693 6
-11.619886 -35.176476 0 10
-1.514989 -4.5862732 -1.7579836 8
-1.6224693 -4.9116445 -1.7478387 12
-1.7420393 -5.2736149 -1.7330352 7
-1.8772033 -5.6827917 -1.7161182 10
-2.0415163 -6.1802106 -1.7038758 14
-2.2249842 -6.7356167 -1.680777 12
-2.4519997 -7.422853 -1.6616303 14
-2.7180407 -8.2282295 -1.6326711 8
-0.47097096 -1.4133197 -0.88348043 3
-3.0809517 -9.2455168 -1.6011022 7
-0.49832097 -1.4953935 -0.88562894 11
