# .PCD v0.7 - Point Cloud Data file format
VERSION 0.7
FIELDS x y z intensity
SIZE 4 4 4 4
TYPE F F F F
COUNT 1 1 1 1
WIDTH 1361
HEIGHT 1
VIEWPOINT 0 0 0 1 0 0 0
POINTS 1361
DATA ascii
-3.837795 -5.4283438 -1.7403439 17
-4.1972809 -5.9368162 -1.7227387 14
-4.6303153 -6.5493188 -1.7048758 14
-5.1466031 -7.2795787 -1.6796998 13
-1.7876056 -2.5135469 -1.8291922 2
-5.926013 -8.3325491 -1.6798928 13
-1.890731 -2.658551 -1.8329775 4
-6.7631369 -9.5096264 -1.6400158 5
-1.9957318 -2.8061924 -1.8309391 3
-7.8794007 -11.079202 -1.5898708 4
-2.0954382 -2.9463894 -1.8160518 3
-9.4591637 -13.300501 -1.5226846 2
-2.2252955 -3.1289814 -1.8174268 4
-11.988599 -16.857132 -1.4464703 2
-2.3624487 -3.3218319 -1.8148589 7
-2.5102968 -3.529721 -1.8091754 7
-16.033421 -22.544544 -0.6422891 2
-2.6593797 -3.7393458 -1.7917783 7
-16.101494 -22.640261 0 4
-2.8483291 -4.0050268 -1.7887653 9
-3.0440319 -4.2802038 -1.7747285 14
-3.2730641 -4.6022453 -1.7622269 9
-3.5421326 -4.9805818 -1.7525023 7
-3.857424 -5.4239125 -1.74237 18
-4.2206106 -5.934588 -1.7255055 14
-4.6508541 -6.5395517 -1.7057076 15
-5.1714678 -7.271585 -1.6811811 14
-1.7906142 -2.5029488 -1.8251114 2
-5.9492588 -8.3159676 -1.6798928 14
-1.9093072 -2.66886 -1.8437539 3
-6.7919707 -9.4939241 -1.6405725 5
-2.0056152 -2.8034809 -1.832817 5
-7.9230227 -11.074926 -1.5924261 3
-2.102618 -2.9390728 -1.8151541 3
-9.4939508 -13.270795 -1.522313 2
-2.2340245 -3.1227548 -1.8174268 3
-12.048395 -16.841438 -1.4480048 2
-2.373842 -3.3181937 -1.8164859 7
-2.5190701 -3.5211961 -1.8084044 7
-16.176586 -22.611889 -0.6454922 2
-2.6708953 -3.7334199 -1.7925059 8
-2.8562217 -3.9924717 -1.7867132 9
-3.0559726 -4.2716866 -1.7747285 14
-3.287014 -4.5946403 -1.7628227 7
-3.5627387 -4.9800525 -1.7558099 6
-3.8759327 -5.41784 -1.7438895 21
-4.2360344 -5.921196 -1.7250444 17
-4.6702361 -6.5281296 -1.7061234 14
-5.1928973 -7.2587137 -1.6815513 14
-1.7984686 -2.4973111 -1.8251114 3
-5.9707413 -8.2908306 -1.6785958 14
-1.9156444 -2.6600187 -1.8417946 4
-6.8252354 -9.4773617 -1.6414076 5
-2.0123489 -2.7943003 -1.8309391 5
-7.9554543 -11.046757 -1.5919615 4
-2.1170633 -2.9397042 -1.8196427 3
-9.5495605 -13.260295 -1.5245425 2
-2.2491059 -3.1230557 -1.8217052 7
-12.109406 -16.814837 -1.4489815 2
-2.3853223 -3.3122025 -1.8172994 7
-2.5311985 -3.5147624 -1.8091754 6
-2.6815224 -3.7234988 -1.7917783 8
-2.8742416 -3.9911044 -1.7901335 10
-3.0704846 -4.2636027 -1.7753688 13
-3.2992008 -4.5811925 -1.7616313 7
-3.5772429 -4.9672751 -1.7552587 6
-3.8918035 -5.4040666 -1.7433829 15
-4.2580271 -5.9125962 -1.7264278 16
-4.691865 -6.5150127 -1.7065392 15
-5.2202697 -7.2487435 -1.6830325 14
-1.8088987 -2.4961429 -1.828172 3
-5.9953146 -8.2730789 -1.6785958 13
-1.9184126 -2.6472638 -1.8368963 4
-6.8544874 -9.4586725 -1.6416858 5
-2.0227034 -2.791177 -1.832817 3
-7.9951897 -11.032755 -1.5933553 3
-2.1257761 -2.9334097 -1.8196427 3
-9.5876942 -13.230289 -1.5243566 2
-2.2562408 -3.1134412 -1.8199939 6
-12.166267 -16.788527 -1.4498185 2
-2.3887064 -3.2962337 -1.8124185 6
-2.5437815 -3.5102255 -1.810717 7
-2.695838 -3.7200518 -1.7939608 11
-2.8794539 -3.9734278 -1.7860292 9
-3.0831213 -4.2544732 -1.7753688 16
-3.3183806 -4.5791135 -1.7646099 7
-3.5874529 -4.9504128 -1.7530535 8
-3.9078205 -5.3924956 -1.7433829 14
-4.2744093 -5.8983607 -1.7259666 14
-4.7123222 -6.5026474 -1.706955 14
-5.2417541 -7.233223 -1.6830325 13
-1.8148488 -2.4896915 -1.8271518 2
-6.0218816 -8.2610893 -1.6795685 15
-1.9319602 -2.6503503 -1.8427743 4
-6.8925409 -9.4554987 -1.6444694 7
-2.0315301 -2.7869446 -1.833756 5
-8.0318184 -11.018412 -1.5945168 3
-2.1318538 -2.9245734 -1.8178473 4
-9.6316404 -13.21312 -1.5254713 2
-2.2585373 -3.0983636 -1.8148599 3
-12.240133 -16.791567 -1.4530274 2
-2.4032834 -3.2969327 -1.8164859 7
-2.5524869 -3.501617 -1.8099462 8
-2.7095082 -3.7170255 -1.7961433 9
-21.049303 -28.876385 0 14
-2.898288 -3.9760025 -1.7908175 9
-3.0972223 -4.2489095 -1.7766492 18
-3.3311548 -4.5698285 -1.7646099 9
-3.601263 -4.9403753 -1.7530535 9
-3.9240036 -5.3831253 -1.7438895 17
-4.290864 -5.8864012 -1.7259666 14
-4.7327676 -6.4926243 -1.7077867 14
-5.2654061 -7.2233219 -1.6841434 14
-1.8191756 -2.4801345 -1.8240912 3
-6.0451989 -8.2415943 -1.6792443 13
-1.9449718 -2.6516361 -1.8476727 3
-6.9240794 -9.4397974 -1.6453044 7
-2.0366569 -2.776633 -1.8309391 5
-8.0715246 -11.004143 -1.5959107 3
-2.143693 -2.9225585 -1.8205403 3
-9.6755133 -13.190907 -1.5262145 2
-2.2730663 -3.0989368 -1.8191382 3
-12.281641 -16.743916 -1.4520508 2
-2.4119742 -3.2883141 -1.8156724 7
-16.958561 -23.120096 -1.3371308 9
-2.5628653 -3.4940281 -1.8099462 7
-2.7194228 -3.7074678 -1.7954158 10
-2.9067376 -3.9628394 -1.7887653 10
-3.1109362 -4.2412291 -1.7772895 15
-3.3424408 -4.5568461 -1.7634184 8
-3.6181798 -4.9327688 -1.7541561 10
-3.9388142 -5.3698988 -1.7433829 15
-4.3117638 -5.8783517 -1.72735 14
-4.7589531 -6.488018 -1.7102816 14
-5.2868147 -7.2076674 -1.6841434 13
-1.836894 -2.4905922 -1.8353133 4
-6.0632405 -8.2209749 -1.6782715 13
-1.9384528 -2.6282928 -1.8349369 3
-6.9487691 -9.4216385 -1.6453044 7
-2.042871 -2.7698703 -1.8300002 5
-8.0979481 -10.979776 -1.595446 4
-2.1555803 -2.9226897 -1.8241311 3
-9.7123775 -13.168736 -1.5265861 2
-2.2865365 -3.1002495 -1.8234165 5
-12.345566 -16.739 -1.4544225 2
-2.4238284 -3.2863996 -1.8181129 10
-17.048677 -23.115816 -1.3394599 9
-2.5741947 -3.4902771 -1.8114879 7
-2.7269082 -3.6973369 -1.7939608 11
-2.9148712 -3.9521909 -1.7873973 10
-3.1197796 -4.23002 -1.7760091 14
-3.3600252 -4.5557623 -1.7663972 8
-3.6356459 -4.9294686 -1.7563612 8
-3.9563043 -5.3642402 -1.7449025 21
-4.3294487 -5.8701758 -1.7282722 14
-4.7782445 -6.4786859 -1.7111132 16
-5.309166 -7.1985469 -1.6852543 14
-1.8412001 -2.4809868 -1.8322527 4
-6.0887818 -8.2045336 -1.6785958 14
-1.9524772 -2.6309309 -1.8408149 4
-6.9802341 -9.4057503 -1.6461394 7
-2.053185 -2.766633 -1.8318781 4
-8.1387768 -10.966867 -1.5970721 5
-2.1546569 -2.9033647 -1.8160518 4
-9.7656479 -13.15905 -1.5288154 2
-2.2871065 -3.0818386 -1.8165712 3
-12.410634 -16.723125 -1.4562361 2
-2.4390128 -3.2865295 -1.8221802 7
-2.5823395 -3.47966 -1.8099462 7
-2.7378664 -3.6892297 -1.7939608 12
-2.9299448 -3.9480524 -1.7894493 9
-3.1368332 -4.226831 -1.7785699 14
-3.3735275 -4.545773 -1.7663972 8
-3.6468186 -4.9140282 -1.7547075 10
-3.9745088 -5.3555851 -1.7459155 21
-4.3456869 -5.8557415 -1.7278111 14
-4.7962804 -6.4629087 -1.7106974 15
-5.3305011 -7.1827626 -1.6852543 14
-1.8479558 -2.4738121 -1.8312325 3
-6.1157084 -8.1869459 -1.67892 15
-1.9659504 -2.6317685 -1.8457134 4
-7.0156751 -9.3917084 -1.6475312 7
-2.058696 -2.7559249 -1.8290612 3
-8.1803226 -10.950793 -1.5984659 5
-2.1723239 -2.9080358 -1.8232335 3
-9.8033648 -13.12352 -1.5282581 2
-2.3021865 -3.0818794 -1.8208495 3
-12.485796 -16.714422 -1.4588869 2
-2.442765 -3.2700684 -1.8172994 7
-2.5965717 -3.4759657 -1.8122587 9
-2.7494428 -3.6806104 -1.7939608 9
-34.444023 -46.109352 0 22
-2.940084 -3.935817 -1.7880813 10
-3.1523647 -4.2199917 -1.7798505 15
-3.3912196 -4.539741 -1.7681845 8
-3.671443 -4.9148688 -1.7591176 11
-3.9959459 -5.3492727 -1.7479415 18
-4.3710499 -5.8514152 -1.7305778 15
-4.8200727 -6.4525108 -1.7119448 16
-5.3577452 -7.1722794 -1.6867356 14
-1.8552876 -2.4683182 -1.8312325 4
-6.1376009 -8.1656084 -1.6782715 14
-1.9706074 -2.6217425 -1.8427743 4
-7.0506496 -9.3803501 -1.6492013 7
-2.067925 -2.7512162 -1.8300002 5
-8.2187462 -10.934413 -1.5996275 6
-2.1744998 -2.8930058 -1.8178473 3
-9.8518324 -13.107109 -1.5297444 2
-2.3080621 -3.0706999 -1.8182825 3
-12.530539 -16.670923 -1.4583288 2
-2.4546523 -3.265727 -1.8189262 7
-2.6024384 -3.4623454 -1.8091754 10
-2.7637093 -3.6769042 -1.7961433 8
-2.9562657 -3.9330854 -1.7908175 10
-3.1671486 -4.2136493 -1.7811309 14
-3.401233 -4.5250807 -1.7663972 7
-3.680234 -4.8962698 -1.7563612 11
-4.0106373 -5.3358464 -1.747435 21
-4.3872228 -5.8368645 -1.7301167 16
-4.8380213 -6.4366174 -1.711529 16
-5.3790021 -7.1563511 -1.6867356 15
-1.8600984 -2.4603834 -1.8291922 3
-6.1627598 -8.1515856 -1.67892 15
-1.9821271 -2.6217928 -1.846693 4
-7.0804005 -9.3653641 -1.6500363 7
-2.0819895 -2.7538824 -1.8356338 3
-8.2552385 -10.919342 -1.600789 7
-2.1836479 -2.8883479 -1.8187449 3
-9.8883953 -13.079547 -1.5297444 2
-2.323169 -3.0728948 -1.8234165 3
-12.581857 -16.642233 -1.4588869 2
-2.4626603 -3.2574022 -1.8181129 7
-2.6210005 -3.4668415 -1.8153421 11
-2.77509 -3.6706581 -1.7968707 12
-2.9695041 -3.9278131 -1.7921855 8
-3.1720469 -4.1957197 -1.7772895 13
-3.4196131 -4.5231795 -1.769376 8
-3.6973708 -4.8905745 -1.758015 11
-4.0243554 -5.3230824 -1.7469285 18
-4.4058528 -5.8276954 -1.7310389 16
-4.8583364 -6.4262033 -1.7123607 16
-5.4037066 -7.1475735 -1.6882168 14
-1.8638381 -2.4510715 -1.8261316 3
-6.1878886 -8.1374865 -1.6795685 14
-1.9883853 -2.6148593 -1.8457134 4
-7.1089234 -9.3487091 -1.6505929 7
-2.0853961 -2.742435 -1.8318781 3
-8.2917109 -10.904153 -1.6019504 7
-2.1927869 -2.8836613 -1.8196427 4
-9.9333191 -13.062978 -1.5310448 2
-2.3328352 -3.0678341 -1.8242722 5
-12.637942 -16.619738 -1.460003 2
-2.4673235 -3.2446952 -1.8148589 9
-2.6262033 -3.4536326 -1.8122587 7
-2.7842019 -3.6614113 -1.7961433 12
-35.180897 -46.265228 0 22
-2.9781859 -3.9165134 -1.7908175 8
-3.1848981 -4.1883535 -1.7779298 14
-3.4299197 -4.5105734 -1.7681845 7
-3.712177 -4.8817606 -1.7585664 11
-4.0392046 -5.3118238 -1.7469285 26
-4.4268212 -5.8215656 -1.7328835 15
-4.8786311 -6.4157252 -1.7131923 17
-5.4248347 -7.1340199 -1.6885871 14
-1.8748558 -2.4513226 -1.8302124 3
-6.2105885 -8.1201754 -1.6795685 15
-1.993561 -2.6065266 -1.8437539 4
-7.1434245 -9.3398323 -1.6525414 7
-2.0941191 -2.7380035 -1.832817 3
-8.3305759 -10.892001 -1.6035765 7
-2.2019169 -2.8789461 -1.8205403 3
-9.9794378 -13.047842 -1.5325311 2
-2.3424914 -3.0627437 -1.8251278 5
-12.702485 -16.608152 -1.4620957 2
-2.4819245 -3.2450488 -1.8189262 8
-2.6313529 -3.4404221 -1.8091754 7
-2.7944157 -3.6536222 -1.7961433 9
-2.9925365 -3.9126599 -1.7928696 9
-3.2023373 -4.1869683 -1.7811309 14
-3.442502 -4.5009775 -1.7681845 6
-3.724627 -4.8698483 -1.758015 8
-4.0551977 -5.3020601 -1.747435 21
-4.4395142 -5.8045435 -1.7315 16
-4.9012818 -6.4082923 -1.7148557 16
-5.4471235 -7.1219654 -1.6893277 14
-1.885268 -2.4498389 -1.8332729 3
-6.238265 -8.1064043 -1.6805413 15
-2.0034127 -2.603364 -1.8457134 4
-7.1698971 -9.3170271 -1.652263 7
-2.1097724 -2.7415745 -1.8393896 5
-8.3689137 -10.875107 -1.6047381 7
-2.2126291 -2.8752329 -1.8223357 3
-10.02175 -13.022909 -1.5330884 2
-2.3537734 -3.058645 -1.8268391 3
-12.755357 -16.575134 -1.4625143 2
-2.4948847 -3.2420144 -1.8213667 7
-2.6460512 -3.4384496 -1.8122587 10
-2.8052437 -3.6453149 -1.7961433 11
-2.9995477 -3.8978059 -1.7901335 9
-3.2112794 -4.1729436 -1.7792102 13
-3.4535129 -4.4877176 -1.766993 7
-3.7390597 -4.8587756 -1.758015 11
-4.0744514 -5.2946048 -1.7489545 19
-4.4579039 -5.7928877 -1.7319611 15
-4.9226604 -6.3968225 -1.7156873 16
-5.4778199 -7.1182332 -1.6922902 13
-1.8914753 -2.4428742 -1.8322527 2
-6.2659144 -8.0925407 -1.681514 14
-2.0047233 -2.5891361 -1.8398353 4
-7.2011471 -9.3004103 -1.6530981 7
-2.103843 -2.7171509 -1.8271834 2
-8.3999281 -10.848658 -1.6045058 7
-2.2167737 -2.8630028 -1.8187449 4
-10.077415 -13.015161 -1.5356895 2
-2.3606248 -3.048789 -1.8251278 3
-12.828909 -16.568766 -1.4653045 2
-2.5011373 -3.2302637 -1.8189262 7
-18.098289 -23.374264 -1.37859 9
-2.6562417 -3.4305835 -1.8122587 8
-2.8183284 -3.6399217 -1.7975982 10
-3.0168526 -3.8963192 -1.7935536 9
-3.2236466 -4.1633973 -1.7792102 13
-3.4761639 -4.4895277 -1.771759 8
-3.7546365 -4.8491802 -1.7585664 11
-4.0877738 -5.2794328 -1.7479415 29
-4.4798379 -5.7857904 -1.7338057 17
-4.9404206 -6.3806415 -1.7152715 18
-5.4953065 -7.0972867 -1.6911793 14
-1.9014606 -2.4416544 -1.8353133 2
-6.2909136 -8.078125 -1.6821624 15
-2.0194452 -2.5931575 -1.846693 4
-7.2343917 -9.2896404 -1.6547682 7
-2.1233575 -2.7265911 -1.8375117 3
-8.4338522 -10.82986 -1.6052027 7
-2.2313488 -2.8652618 -1.8241311 5
-10.103931 -12.9744 -1.5342032 2
-2.3691294 -3.0421851 -1.8251278 5
-12.887386 -16.548618 -1.4666996 2
-2.5146387 -3.2290328 -1.8221802 7
-18.186815 -23.353582 -1.3803601 9
-2.6646774 -3.4216964 -1.8114879 10
-2.8307714 -3.6349769 -1.7990532 10
-3.0254118 -3.8849137 -1.7921855 8
-3.2340963 -4.152884 -1.7785699 12
-3.4851682 -4.4752841 -1.7699717 8
-3.7693446 -4.8401933 -1.7591176 13
-4.1072559 -5.2741032 -1.7499676 24
-4.5007601 -5.7793999 -1.7356501 17
-4.9654312 -6.3760815 -1.7177664 20
-5.5199347 -7.0881157 -1.6926605 13
-1.9006323 -2.4248376 -1.8271518 2
-6.3199134 -8.0629816 -1.6831352 15
-2.0265062 -2.5854282 -1.8457134 3
-7.2659841 -9.2699842 -1.6553248 7
-2.1210191 -2.7060087 -1.8281223 3
-8.4751863 -10.812692 -1.6065965 7
-2.2381341 -2.8554244 -1.8223357 5
-10.148328 -12.947295 -1.5347605 2
-2.3820205 -3.0389955 -1.8276948 3
-12.947927 -16.519041 -1.4676762 2
-2.5247705 -3.2211168 -1.8221802 7
-2.6754136 -3.4133084 -1.8114879 10
-2.83758 -3.6202009 -1.7961433 9
-36.628967 -46.731449 0 23
-3.0422392 -3.8813064 -1.7949218 8
-3.2518024 -4.1486683 -1.7811309 13
-3.4980326 -4.4628105 -1.769376 9
-3.7928338 -4.8389196 -1.7629765 17
-4.1261916 -5.2642193 -1.7509805 23
-4.517694 -5.7637 -1.735189 16
-4.9854379 -6.3604507 -1.7177664 18
-5.5409627 -7.0691924 -1.6922902 14
-1.9148512 -2.428977 -1.8342931 2
-6.3448482 -8.0484018 -1.6837837 15
-2.0326385 -2.5783899 -1.8447337 4
-7.2967467 -9.2558794 -1.6564382 7
-2.1351271 -2.7083957 -1.833756 3
-8.5188751 -10.806142 -1.6091518 7
-2.2460992 -2.8491633 -1.8223357 4
-10.198005 -12.936108 -1.5368042 1
-2.3860211 -3.0266533 -1.8242722 3
-13.001418 -16.49222 -1.4685133 2
-2.5337558 -3.2140539 -1.8221802 8
-18.310234 -23.226421 -1.3792422 9
-2.6895051 -3.4116209 -1.8145713 10
-2.8488317 -3.6137257 -1.7968707 11
-3.053066 -3.8727958 -1.7949218 7
-3.2668941 -4.1440353 -1.7830516 14
-3.5092995 -4.4515252 -1.7687802 8
-3.8075221 -4.8298187 -1.7635278 12
-4.1420741 -5.2541957 -1.751487 23
-4.5373859 -5.7556467 -1.7365724 16
-5.00318 -6.3465037 -1.7177664 15
-5.5631156 -7.0567789 -1.6930307 13
-1.9237642 -2.4263163 -1.8363335 3
-6.368525 -8.0321989 -1.6841079 15
-2.0452473 -2.579535 -1.849632 3
-7.3262572 -9.2401228 -1.6572733 7
-2.1503618 -2.7121089 -1.8403286 3
-8.5551891 -10.790093 -1.6103133 7
-2.2595985 -2.8498819 -1.8268243 3
-10.239038 -12.91382 -1.5375472 2
-2.3922176 -3.0171454 -1.8225608 3
-13.056099 -16.466793 -1.4694899 2
-2.542721 -3.2069657 -1.8221802 7
-18.342752 -23.134497 -1.3768198 9
-2.697875 -3.4026511 -1.8138005 7
-2.8623843 -3.6101358 -1.7990532 9
-3.0580308 -3.8568916 -1.7915015 7
-3.2772765 -4.1334119 -1.7824113 13
-3.522903 -4.4432039 -1.769376 9
-3.8198001 -4.8176608 -1.7629765 10
-4.1531239 -5.23806 -1.7499676 27
-4.5498137 -5.7383785 -1.735189 16
-5.022099 -6.3340406 -1.7181822 15
-5.590127 -7.0504565 -1.6952525 14
-1.9348223 -2.4263146 -1.8404142 4
-6.3921609 -8.0159264 -1.6844321 15
-2.0491815 -2.5697238 -1.846693 3
-7.3582058 -9.2273703 -1.6586651 7
-2.1546242 -2.7019515 -1.8375117 5
-8.5902414 -10.772373 -1.6112425 7
-2.2586339 -2.8323822 -1.8196427 3
-10.270094 -12.878949 -1.5368042 2
-2.3972526 -3.0062134 -1.8199939 3
-13.103275 -16.431828 -1.4696294 2
-2.5471101 -3.1941385 -1.8189262 9
-18.399811 -23.073812 -1.3762608 9
-2.7050653 -3.3922181 -1.8122587 7
-2.8712931 -3.6006718 -1.7983257 8
-37.339638 -46.824818 0 24
-3.0781634 -3.8600922 -1.7969738 8
-3.2864437 -4.1212807 -1.7811309 13
-3.5364873 -4.4348416 -1.7699717 11
-3.8320401 -4.8054719 -1.7624253 11
-4.1713543 -5.2309804 -1.751487 21
-4.5682473 -5.728694 -1.7361113 17
-5.0434265 -6.3245802 -1.7194297 17
-5.6097937 -7.0348186 -1.6952525 14
-1.9445887 -2.4229074 -1.8424546 2
-6.4210176 -8.0004225 -1.6854049 15
-2.0550616 -2.5605538 -1.8447337 3
-7.398315 -9.2181091 -1.6611701 8
-2.1586807 -2.6896603 -1.833756 3
-8.6165819 -10.736038 -1.6098487 7
-2.2731142 -2.8322418 -1.8241311 4
-10.317983 -12.85594 -1.5379188 2
-2.4146054 -3.0085361 -1.8259835 5
-13.174813 -16.415478 -1.4718616 2
-2.5628505 -3.1932454 -1.8229936 7
-18.450949 -22.989407 -1.3746769 9
-2.7214847 -3.3908994 -1.816113 9
-2.8814247 -3.5901806 -1.7975982 7
-3.086746 -3.8460057 -1.7949218 8
-3.300561 -4.1124134 -1.7817712 14
-3.5480123 -4.4207315 -1.7687802 9
-3.8519313 -4.799407 -1.7646303 15
-4.1901894 -5.2208676 -1.7525001 18
-4.5910945 -5.7203851 -1.7379557 16
-5.0669441 -6.3132815 -1.7206771 20
-5.6343269 -7.0202255 -1.6959932 15
-1.9437838 -2.4080975 -1.8353133 2
-6.4458132 -7.9855318 -1.6860534 15
-2.0578234 -2.5493779 -1.8408149 3
-7.425272 -9.1989546 -1.6614485 8
-2.1672924 -2.6849959 -1.8346949 3
-8.6540146 -10.721209 -1.6112425 7
-2.2888722 -2.8356178 -1.830415 6
-10.3651 -12.841022 -1.539591 2
-2.4229975 -3.0017815 -1.8259835 4
-13.228122 -16.387938 -1.4726987 2
-2.5717576 -3.1860762 -1.8229936 8
-18.546448 -22.976656 -1.3770062 9
-2.7286248 -3.3804145 -1.8145713 7
-2.8961196 -3.5879188 -1.8005081 9
-37.958527 -47.025723 0 24
-3.0962934 -3.8359084 -1.7942376 8
-3.3108418 -4.1017065 -1.7811309 13
-3.563941 -4.4152637 -1.7705675 10
-3.8689415 -4.7931199 -1.7662842 22
-4.2047524 -5.209146 -1.7525001 21
-4.6070509 -5.7075419 -1.7379557 17
-5.0870118 -6.3021517 -1.7215087 17
-5.6563778 -7.0075231 -1.6967338 15
-1.9535089 -2.4046495 -1.8373537 2
-6.4733577 -7.9683056 -1.6867018 15
-2.0746176 -2.5537271 -1.8486524 2
-7.4566321 -9.1786566 -1.6620052 8
-2.1746032 -2.6768031 -1.833756 3
-8.7051888 -10.715553 -1.6144947 7
-2.2887542 -2.8173158 -1.8232335 4
-10.410412 -12.814578 -1.540334 2
-2.4267166 -2.9871392 -1.8217052 3
-13.292121 -16.361784 -1.4740938 4
-2.5782981 -3.1737266 -1.8205532 7
-18.597124 -22.891918 -1.3754224 9
-2.7392313 -3.3718255 -1.8145713 8
-2.9062023 -3.5773568 -1.7997806 9
-3.1083291 -3.8261623 -1.7942376 7
-3.3356586 -4.1059909 -1.7875333 14
-3.5802021 -4.4070091 -1.771759 10
-3.8827682 -4.7794495 -1.7657329 16
-4.2259765 -5.2019176 -1.754526 21
-4.6274133 -5.6960616 -1.7388779 17
-5.1092525 -6.2891765 -1.7223405 18
-5.6808434 -6.9927692 -1.6974744 14
-0.802154 -0.98178744 -0.75187653 2
-6.5005784 -7.9563107 -1.6879988 16
-2.0740185 -2.5384719 -1.8417946 2
-7.4859943 -9.1623993 -1.6628402 8
-2.1820698 -2.6707201 -1.833756 4
-8.7388496 -10.695817 -1.6151916 7
-2.2988741 -2.8136814 -1.8250289 5
-10.451197 -12.791625 -1.5410771 4
-2.4419112 -2.9887502 -1.8268391 4
-13.355433 -16.346233 -1.476047 5
-2.5883067 -3.1679292 -1.8213667 8
-2.7474687 -3.3627338 -1.8138005 9
-2.9114659 -3.5634563 -1.7968707 8
-3.1178124 -3.8160119 -1.7935536 7
-3.3399189 -4.0878563 -1.7836919 14
-3.5937028 -4.3984723 -1.7723547 9
-3.8948834 -4.7670989 -1.7651817 13
-4.2392621 -5.1885977 -1.7540195 17
-4.6445327 -5.6846242 -1.7393391 18
-5.1305084 -6.279429 -1.7235879 23
-5.7028356 -6.9799223 -1.698215 14
-0.80598468 -0.98087269 -0.75289673 3
-6.5165067 -7.9305029 -1.6863775 15
-2.0866339 -2.5394061 -1.846693 3
-7.5190954 -9.1506395 -1.6645103 8
-2.1928828 -2.6687093 -1.8365728 4
-8.7775116 -10.682116 -1.6168177 7
-2.3101263 -2.8113933 -1.827722 5
-10.49699 -12.774699 -1.5425634 4
-2.4491003 -2.9805229 -1.8259835 4
-13.408628 -16.318123 -1.476884 2
-2.601783 -3.1663356 -1.8246206 8
-2.7650499 -3.3650293 -1.8191963 8
-2.9261367 -3.5610697 -1.7997806 12
-3.1320362 -3.8116467 -1.7956058 7
-3.3513212 -4.0785136 -1.7836919 14
-3.5986991 -4.3795691 -1.7687802 13
-3.9081805 -4.7562041 -1.7651817 11
-4.2537351 -5.1767392 -1.7540195 21
-4.6628599 -5.6746392 -1.7402613 24
-5.1455402 -6.2620544 -1.7227563 18
-5.7248006 -6.9670067 -1.6989557 15
-0.8045072 -0.97317356 -0.74881595 3
-6.5475531 -7.9202595 -1.688323 16
-2.0997143 -2.5399232 -1.8515915 4
-7.5512605 -9.1343956 -1.6656237 8
-2.1996663 -2.6608303 -1.8356338 4
-8.8104324 -10.657557 -1.6170501 7
-2.3127642 -2.7976394 -1.8232335 4
-10.541191 -12.751171 -1.5434923 2
-2.4590847 -2.9746363 -1.8268391 4
-13.465883 -16.28903 -1.4778607 2
-2.6088378 -3.1557856 -1.8229936 7
-2.7667911 -3.346854 -1.8138005 7
-2.9343157 -3.5495002 -1.7983257 9
-39.246201 -47.474236 0 26
-3.146924 -3.8066823 -1.7976578 8
-3.364615 -4.0700126 -1.784332 15
-3.6177599 -4.3762298 -1.771759 9
-3.9247251 -4.747551 -1.7662842 13
-4.2727742 -5.1685691 -1.7555391 19
-4.6796765 -5.6607795 -1.7402613 20
-5.1653438 -6.2482677 -1.7231721 18
-5.755465 -6.9621091 -1.701918 16
-0.80959105 -0.97342747 -0.75085634 3
-6.5722861 -7.9023151 -1.6886473 16
-2.1038961 -2.5296602 -1.8486524 3
-7.5770631 -9.1104279 -1.6653453 8
-2.2143264 -2.6624382 -1.8412675 5
-8.8445559 -10.634423 -1.6175146 7
-2.3279116 -2.7990093 -1.8286197 6
-10.576431 -12.716777 -1.5431207 2
-2.4655879 -2.9645472 -1.8251278 3
-13.544773 -16.28582 -1.4812089 2
-2.6170216 -3.1466265 -1.8221802 8
-18.984774 -22.82671 -1.3845527 10
-2.7767093 -3.33863 -1.8138005 9
-2.9495995 -3.5465078 -1.8012356 10
-3.1570032 -3.7958837 -1.7969738 8
-3.3766761 -4.0600114 -1.784332 15
-3.6319492 -4.3669443 -1.7723547 10
-3.9375646 -4.7344069 -1.7657329 12
-4.2868538 -5.1543813 -1.7550325 17
-4.7014294 -5.6528544 -1.7421057 29
-5.1901145 -6.2404346 -1.7252512 20
-5.7710695 -6.9389572 -1.7004368 16
-0.8189283 -0.97907996 -0.75697744 4
-6.5955939 -7.8854446 -1.6889715 15
-2.1154268 -2.529125 -1.8525711 4
-7.6100984 -9.0983486 -1.6670154 9
-2.2183537 -2.6521807 -1.8384507 3
-8.8818655 -10.618825 -1.6189084 7
-2.3345721 -2.791127 -1.827722 6
-10.625957 -12.703995 -1.5451645 2
-2.4784961 -2.963197 -1.8285505 4
-13.579958 -16.235689 -1.4800929 2
-2.6351762 -3.1505179 -1.8286879 7
-19.034344 -22.756748 -1.3835279 10
-2.7872057 -3.3322785 -1.8145713 9
-2.9606869 -3.5396862 -1.8019631 10
-3.1675909 -3.7870529 -1.7969738 9
-3.3904319 -4.053473 -1.7856126 14
-3.6490295 -4.3626428 -1.7747377 11
-3.9532371 -4.7263422 -1.7668355 12
-4.3074374 -5.1498103 -1.757565 18
-4.7184453 -5.6411963 -1.7425669 25
-5.2137966 -6.2334194 -1.7273303 21
-5.7916856 -6.9243217 -1.7008071 15
-0.81390768 -0.9675743 -0.74983615 4
-6.6188588 -7.868506 -1.6892958 15
-2.1292157 -2.5312138 -1.8584492 4
-7.6367512 -9.078577 -1.6672938 9
-2.2234778 -2.6432726 -1.8365728 3
-8.9178782 -10.601582 -1.62007 8
-2.3435078 -2.7859643 -1.8286197 6
-10.665236 -12.678843 -1.5457218 2
-2.480943 -2.9493473 -1.8242722 3
-13.654783 -16.232819 -1.4833016 2
-2.6369071 -3.1347575 -1.8238071 10
-19.078527 -22.680573 -1.3821303 10
-2.7988763 -3.3273067 -1.816113 9
-2.9681616 -3.5285532 -1.8005081 10
-3.1842029 -3.7853835 -1.8003941 7
-3.4041774 -4.0468893 -1.786893 15
-3.6550531 -4.3451309 -1.771759 10
-3.9688952 -4.7182264 -1.767938 12
-4.3230472 -5.1392426 -1.7580715 28
-4.7341805 -5.6279979 -1.7425669 21
-5.2337017 -6.2218299 -1.7281619 21
-5.8122644 -6.9096255 -1.7011775 15
-0.81549549 -0.96398431 -0.74881595 4
-6.6459045 -7.856019 -1.6905928 15
-2.1340237 -2.5225956 -1.8564898 4
-7.6710277 -9.0678005 -1.6692421 9
-2.2319911 -2.6384015 -1.8375117 5
-8.9564285 -10.587253 -1.6216961 9
-2.3501244 -2.7780447 -1.827722 6
-10.713462 -12.664214 -1.5475796 2
-2.4973421 -2.9520686 -1.8302618 4
-13.697483 -16.191578 -1.4830227 2
-2.6432905 -3.1245918 -1.8221802 8
-2.8117325 -3.3237047 -1.8184254 13
-31.025093 -36.674271 -1.1152787 13
-2.9804099 -3.5230954 -1.8019631 8
-3.1923337 -3.7736073 -1.799026 8
-3.4166889 -4.0388141 -1.7875333 15
-3.6721051 -4.3407373 -1.774142 10
-3.9795723 -4.7041893 -1.7668355 12
-4.3348823 -5.1241961 -1.7570585 26
-4.7523918 -5.6177273 -1.7434891 24
-5.2523193 -6.208684 -1.7285779 21
-5.8340755 -6.8963685 -1.701918 15
-0.8162896 -0.95879793 -0.74677563 4
-6.6705523 -7.8351011 -1.6905928 15
-2.1374168 -2.5105684 -1.8525711 3
-7.702045 -9.0466728 -1.6697989 9
-2.2471373 -2.6394441 -1.8431454 7
-8.9973717 -10.568139 -1.6230899 8
-2.3588402 -2.770648 -1.827722 5
-10.755777 -12.633527 -1.5479512 4
-2.5030882 -2.940079 -1.8276948 4
-13.75087 -16.151505 -1.4833016 2
-2.6530936 -3.1162724 -1.8221802 8
-2.8161788 -3.3078289 -1.8145713 9
-31.224405 -36.675583 -1.118296 13
-2.9866326 -3.5080407 -1.7990532 8
-40.689533 -47.793137 0 27
-3.2053914 -3.7649906 -1.79971 8
-3.4293604 -4.02806 -1.7875333 15
-3.6894367 -4.3335409 -1.7759292 11
-3.9968238 -4.6945915 -1.767938 11
-4.354722 -5.1149716 -1.7585781 27
-4.7725401 -5.6057334 -1.7444113 24
-5.2705307 -6.1906629 -1.7281619 20
-5.8569865 -6.8795028 -1.7022884 15
-0.82903314 -0.96827513 -0.75595731 4
-6.6924057 -7.816443 -1.6905928 15
-2.1410172 -2.5006163 -1.849632 3
-7.731142 -9.0296421 -1.6706339 9
-2.2544994 -2.6331584 -1.8431454 7
-9.0397682 -10.558062 -1.6254129 9
-2.3688927 -2.7667651 -1.8295174 6
-10.80267 -12.617056 -1.5496233 4
-2.5112889 -2.9330776 -1.8276948 4
-13.838739 -16.163054 -1.4879056 2
-2.6653504 -3.1130149 -1.8246206 10
-2.8290057 -3.3041573 -1.8168838 7
-3.0000522 -3.5039322 -1.8012356 7
-3.2171149 -3.7574525 -1.8003941 7
-3.4381309 -4.0155892 -1.7862527 16
-3.7015238 -4.3232212 -1.7759292 9
-4.0124187 -4.6863327 -1.7690406 11
-4.3727636 -5.1072001 -1.7600976 23
-4.7869101 -5.5909057 -1.7439502 21
-5.2941594 -6.183351 -1.7302411 28
-5.8800097 -6.867599 -1.7033993 15
-0.83061135 -0.96465266 -0.75493711 4
-6.7206459 -7.8052015 -1.6922139 15
-2.1491296 -2.495949 -1.8506117 3
-7.7602043 -9.0125198 -1.671469 9
-2.262996 -2.6281908 -1.8440843 7
-9.0718088 -10.535788 -1.6258775 9
-2.3754437 -2.7587848 -1.8286197 6
-10.844358 -12.594385 -1.5505521 4
-2.5218287 -2.9287932 -1.8294061 3
-13.902046 -16.145514 -1.4898587 2
-2.6835706 -3.1166363 -1.8311284 7
-2.8406301 -3.2990415 -1.8184254 10
-3.0098252 -3.4955409 -1.8012356 8
-3.2226901 -3.7427571 -1.7976578 6
-3.4530399 -4.0102801 -1.7881736 16
-3.7148278 -4.3143144 -1.776525 12
-4.0267444 -4.6765666 -1.7695918 13
-4.3882709 -5.0964355 -1.760604 27
-4.8126626 -5.5893145 -1.7476392 24
-5.3126822 -6.1700253 -1.7306569 23
-5.9004469 -6.8526416 -1.7037696 15
-0.82817185 -0.95539367 -0.74983615 4
-6.7464919 -7.7828722 -1.6922139 15
-2.161963 -2.4940786 -1.8545305 4
-7.7861562 -8.9822474 -1.6706339 9
-2.2682288 -2.6166689 -1.8412675 5
-9.1106005 -10.510149 -1.6265744 9
-2.3904321 -2.7576447 -1.8331082 5
-10.897802 -12.571898 -1.5522242 4
-2.5362635 -2.925878 -1.8328288 3
-13.952897 -16.096308 -1.4895798 2
-2.6867104 -3.0994365 -1.8262476 7
-19.514959 -22.5128 -1.3893974 10
-2.853972 -3.2923925 -1.8199672 8
-3.0226207 -3.4869485 -1.8019631 8
-3.2424698 -3.7405703 -1.8017621 7
-3.4650786 -3.9973757 -1.7875333 16
-3.726613 -4.2990866 -1.7753335 10
-4.0409708 -4.6617351 -1.7690406 13
-4.4089489 -5.0862412 -1.7621236 28
-4.823523 -5.5645008 -1.7448725 21
-5.3343949 -6.153852 -1.7310728 21
-5.9295754 -6.8404632 -1.7056211 16
-0.83761895 -0.96085751 -0.75595731 5
-6.77209 -7.768465 -1.6931866 15
-2.165482 -2.4840887 -1.8515915 4
-7.8112092 -8.9604692 -1.6706339 9
-2.2708855 -2.605 -1.8375117 5
-9.1503572 -10.496646 -1.6284329 9
-2.3946004 -2.746917 -1.830415 6
-10.953804 -12.565433 -1.5551968 4
-2.5384846 -2.9119709 -1.8285505 4
-14.016147 -16.078337 -1.4915329 2
-2.6917534 -3.08779 -1.8238071 10
-19.529177 -22.402496 -1.3859502 10
-2.8570914 -3.2774541 -1.816113 8
-31.281937 -35.884438 -1.1052516 13
-3.0347946 -3.4813027 -1.803418 7
-3.249198 -3.7272511 -1.79971 9
-3.4774728 -3.9891119 -1.7881736 15
-3.7423675 -4.2929807 -1.7771207 9
-4.0552363 -4.6518817 -1.7695918 15
-4.421864 -5.0724511 -1.7616171 24
-4.840322 -5.5524764 -1.7453336 22
-5.3515587 -6.1389318 -1.7310728 19
-5.952529 -6.8283224 -1.706732 15
-0.83786404 -0.95607382 -0.75391692 6
-6.7937055 -7.7521935 -1.6935109 15
-2.1742764 -2.4810336 -1.8535508 4
-7.8320303 -8.9370098 -1.6700772 9
-2.2858448 -2.6083426 -1.8440843 5
-9.1843519 -10.480124 -1.6295943 8
-2.3982499 -2.7366064 -1.827722 4
-10.993225 -12.544201 -1.5561256 4
-2.5484824 -2.9080343 -1.8302618 4
-14.068711 -16.053591 -1.4926491 2
-2.7082574 -3.0903511 -1.8295014 7
-2.8705273 -3.2755148 -1.8191963 10
-31.269032 -35.680614 -1.1014915 13
-3.0438983 -3.4733458 -1.803418 7
-3.2577059 -3.7173185 -1.799026 10
-3.4866555 -3.9785693 -1.7875333 16
-3.7535937 -4.2831683 -1.7771207 13
-4.0686684 -4.642695 -1.7701432 12
-4.4338531 -5.059402 -1.7611105 26
-4.8638201 -5.5500307 -1.7485614 26
-5.3714805 -6.1293139 -1.7323202 24
-5.9781575 -6.8215842 -1.7089539 16
-0.84313917 -0.95601726 -0.75595731 5
-6.8193316 -7.7322922 -1.6938351 15
-2.1786001 -2.4702675 -1.8506117 4
-7.8600678 -8.9123611 -1.6700772 9
-2.2975318 -2.6051216 -1.8469012 5
-9.2198591 -10.454199 -1.6300589 7
-2.4091997 -2.7317393 -1.8295174 4
-11.05102 -12.530512 -1.5587267 4
-2.5552142 -2.8973022 -1.8285505 5
-14.13623 -16.028767 -1.4944627 2
-2.7143271 -3.0777168 -1.8270611 7
-19.75699 -22.402023 -1.3929377 10
-2.8795829 -3.2650967 -1.8184254 10
-31.300297 -35.49073 -1.0986598 13
-3.0584919 -3.4679577 -1.8056004 7
-3.2668819 -3.7042468 -1.7976578 9
-3.4991374 -3.9675961 -1.7875333 16
-3.7720826 -4.2770824 -1.7795037 13
-4.0895915 -4.6370993 -1.7728995 16
-4.4535651 -5.0498013 -1.7626301 28
-4.8773704 -5.5303445 -1.7471781 21
-5.3945913 -6.1168103 -1.7335677 21
-5.9995584 -6.8027697 -1.7089539 16
-0.845972 -0.95351136 -0.75595731 5
-6.8448629 -7.7149773 -1.6944836 15
-2.1882343 -2.4664011 -1.8525711 4
-7.8917346 -8.8949261 -1.6711906 9
-2.3017354 -2.5943305 -1.8440843 6
-9.2561102 -10.43274 -1.6309881 8
-2.4184804 -2.7259159 -1.830415 3
-11.101366 -12.512564 -1.5605844 4
-2.5673985 -2.8937645 -1.8311175 4
-14.212857 -16.019585 -1.497532 2
-2.7234468 -3.0696497 -1.8270611 8
-19.828674 -22.349283 -1.3933103 10
-2.8904827 -3.2579188 -1.8191963 8
-31.453234 -35.451546 -1.1003309 13
-3.068768 -3.4588678 -1.8056004 7
-3.2840948 -3.7015667 -1.8010781 10
-3.5146666 -3.9614484 -1.789454 16
-3.7834892 -4.2644439 -1.778908 11
-4.1046081 -4.6263833 -1.7734507 12
-4.4698129 -5.038012 -1.7631366 27
-4.8976326 -5.520216 -1.7485614 22
-5.4153132 -6.103704 -1.7343993 26
-6.0210209 -6.7864089 -1.7093241 16
-0.84634089 -0.94857806 -0.75391692 5
-6.8729501 -7.703196 -1.6961048 16
-2.2067215 -2.4732914 -1.8623679 4
-7.9152246 -8.871376 -1.6709123 9
-2.3066199 -2.5852575 -1.8422064 7
-9.2957878 -10.41871 -1.6328466 9
-2.4248931 -2.717818 -1.8295174 4
-11.145544 -12.491916 -1.561885 4
-2.576673 -2.8879325 -1.8319731 3
-14.258864 -15.981322 -1.4976715 2
-2.7356575 -3.0661223 -1.8295014 7
-19.937561 -22.345999 -1.3965712 10
-2.9007978 -3.2512114 -1.8199672 8
-3.0796554 -3.4516747 -1.8063279 9
-3.296921 -3.6951859 -1.8024461 10
-3.5294995 -3.9558597 -1.7913747 15
-3.796654 -4.2552862 -1.7795037 9
-4.1136718 -4.610599 -1.7717969 12
-4.4864402 -5.028398 -1.7641495 28
-4.918211 -5.5123262 -1.7504059 21
-5.436244 -6.092937 -1.7356468 23
-6.0464907 -6.7769012 -1.7111757 16
-0.8457045 -0.94222218 -0.75085634 5
-6.8957758 -7.6827698 -1.6961048 16
-2.207062 -2.4589474 -1.8564898 3
-7.952095 -8.859643 -1.673139 9
-2.3213577 -2.5862873 -1.8478401 7
-9.3332939 -10.398475 -1.634008 9
-2.4317527 -2.7092812 -1.8286197 4
-11.198522 -12.476575 -1.5641143 4
-2.5816078 -2.8762388 -1.8294061 3
-14.320879 -15.955277 -1.4992062 2
-2.7459633 -3.0593517 -1.8303149 7
-19.985092 -22.26593 -1.3952669 10
-2.9104316 -3.2425902 -1.8199672 6
-3.0898831 -3.442522 -1.8063279 11
-3.3053596 -3.6825902 -1.8010781 11
-3.5424869 -3.9467802 -1.792015 16
-3.8079877 -4.2425818 -1.778908 11
-4.1350384 -4.6069579 -1.7751045 18
-4.5000477 -5.0136247 -1.7636431 27
-4.9319448 -5.494813 -1.7494837 22
-5.4569116 -6.0796924 -1.7364784 23
-6.0639462 -6.7560058 -1.710435 15
-0.85310781 -0.94481587 -0.75493711 5
-6.9225082 -7.6666698 -1.6970775 17
-2.2213593 -2.4601529 -1.8623679 4
-7.9796743 -8.8374796 -1.6734173 9
-2.3242874 -2.5741456 -1.8440843 6
-9.3667679 -10.373685 -1.6344726 10
-2.4457693 -2.7086866 -1.8331082 5
-11.251505 -12.461029 -1.5663438 4
-2.5986106 -2.8779583 -1.8353958 5
-14.386875 -15.933448 -1.5011593 2
-2.7501307 -3.0457666 -1.8270611 7
-20.081863 -22.240639 -1.3974097 10
-2.9225132 -3.23668 -1.8215089 6
-31.840464 -35.263275 -1.1030698 13
-3.098835 -3.4319563 -1.8056004 9
-3.315012 -3.6713719 -1.8003941 9
-3.5554514 -3.9376583 -1.7926551 16
-3.820559 -4.2312646 -1.778908 9
-4.1525545 -4.5989494 -1.7767584 13
-4.5174971 -5.0031223 -1.7646561 24
-4.9534435 -5.4859333 -1.7513281 20
-5.4788594 -6.0678306 -1.7377259 26
-6.0892334 -6.7438188 -1.7119163 16
-0.85673457 -0.94385296 -0.75595731 5
-6.9438825 -7.649982 -1.6974018 17
-2.2160733 -2.4414182 -1.8525711 4
-8.0054455 -8.8194923 -1.673974 9
-2.3310184 -2.5680518 -1.8440843 7
-9.3952293 -10.350598 -1.6347049 10
-2.4456451 -2.6943343 -1.827722 3
-11.296135 -12.4448 -1.5680158 4
-2.6037064 -2.8684683 -1.8336844 5
-14.444631 -15.913456 -1.5028335 2
-2.7593231 -3.0399091 -1.8278744 9
-20.187016 -22.239765 -1.4006705 10
-2.9309769 -3.2290177 -1.8215089 7
-3.1078093 -3.4238317 -1.8056004 9
-3.3246124 -3.6626809 -1.8003941 10
-3.5619276 -3.9241278 -1.7907344 16
-3.8341897 -4.2240753 -1.7800995 9
-4.1568274 -4.5795212 -1.7734507 11
-4.5331802 -4.994144 -1.7656691 27
-4.9651728 -5.4700642 -1.7504059 21
-5.4973559 -6.0563636 -1.7385576 27
-6.105547 -6.7263989 -1.7115459 15
-0.85953128 -0.94130683 -0.75595731 5
-6.970542 -7.6337175 -1.6983745 16
-2.2186046 -2.429682 -1.8486524 3
-8.0342493 -8.7986259 -1.6745307 9
-2.3410094 -2.5637324 -1.8459622 5
-9.4339361 -10.331478 -1.6360987 10
-2.4608593 -2.6949847 -1.8331082 3
-11.354494 -12.434758 -1.5709884 4
-2.6134248 -2.8620653 -1.8345401 5
-14.503891 -15.883787 -1.5040891 2
-2.7732584 -3.0371056 -1.8311284 9
-20.216541 -22.139938 -1.398155 10
-2.9393003 -3.2189445 -1.820738 7
-3.1192105 -3.4159715 -1.8063279 10
-3.3392668 -3.6569638 -1.8024461 8
-3.573555 -3.913542 -1.7907344 16
-3.8492806 -4.2155004 -1.781291 9
-4.1768789 -4.574266 -1.7762071 13
-4.549283 -4.9821005 -1.7661756 26
-4.98663 -5.4610567 -1.7522504 21
-5.5139823 -6.0385814 -1.7381418 23
-6.1254778 -6.7082539 -1.7115459 15
-0.86115664 -0.93748558 -0.75493711 5
-6.9971662 -7.617362 -1.6993473 17
-2.2317014 -2.4295089 -1.8535508 3
-8.0670185 -8.7820415 -1.6759225 9
-2.3474112 -2.5554745 -1.8450233 6
-9.469924 -10.309293 -1.637028 10
-2.4652174 -2.6837227 -1.830415 4
-11.39538 -12.405414 -1.5715457 4
-2.6206822 -2.8529673 -1.8336844 4
-14.580648 -15.873009 -1.5071584 2
-2.7797856 -3.0261726 -1.8295014 7
-20.321337 -22.122524 -1.4008569 10
-2.9475896 -3.2088501 -1.8199672 7
-3.1318529 -3.4094455 -1.8077829 10
-3.3475599 -3.6442719 -1.8010781 9
-3.5864327 -3.9043174 -1.7913747 16
-3.8630629 -4.2054667 -1.7818867 8
-4.1904325 -4.5618529 -1.7762071 12
-4.562736 -4.9671555 -1.7656691 27
-5.004128 -5.4476705 -1.7527115 21
-5.5345216 -6.0250759 -1.7389734 24
-6.1480136 -6.6929445 -1.7122866 15
-0.86477506 -0.93649167 -0.75595731 5
-7.0184236 -7.6004677 -1.6996715 16
-2.2463346 -2.4326251 -1.8604085 3
-8.089983 -8.7608919 -1.6759225 9
-2.3588853 -2.5545099 -1.848779 6
-9.495533 -10.283006 -1.6367956 10
-2.4758723 -2.6811986 -1.8331082 5
-11.438626 -12.387241 -1.573032 4
-2.6281424 -2.8460965 -1.8336844 5
-14.645164 -15.8597 -1.5095301 2
-2.786459 -3.0175426 -1.8286879 7
-20.429331 -22.123554 -1.404304 10
-2.9609883 -3.2065456 -1.8230505 7
-3.1432958 -3.4039721 -1.8092378 10
-3.3647389 -3.64378 -1.8051823 10
-3.5953565 -3.8935225 -1.7907344 16
-3.8727641 -4.1939359 -1.781291 7
-4.2023611 -4.5508666 -1.7762071 12
-4.5783496 -4.9580364 -1.7666821 26
-5.0196929 -5.4359808 -1.7531726 22
-5.5569124 -6.0177522 -1.7410525 26
-6.1695147 -6.6811581 -1.7133975 15
-0.86537087 -0.93124998 -0.75391692 5
-7.0449529 -7.5812726 -1.70032 16
-2.2480311 -2.4191697 -1.8555101 4
-8.1215105 -8.7397861 -1.6767576 9
-2.3608885 -2.5406187 -1.8440843 7
-9.5332003 -10.258945 -1.6377249 10
-2.4818501 -2.6707888 -1.8313128 5
-11.493752 -12.368751 -1.5752614 4
-2.6383011 -2.8391502 -1.8345401 5
-14.705781 -15.825305 -1.5106462 2
-2.7946813 -3.0074353 -1.8278744 8
-20.442976 -21.999262 -1.4004842 10
-2.9660223 -3.1918201 -1.8199672 7
-3.1539741 -3.3940804 -1.8092378 11
-3.3723316 -3.6290612 -1.8031301 11
-3.6165991 -3.8919241 -1.7952161 17
-3.8846211 -4.1803503 -1.7806952 8
-4.2205634 -4.5418673 -1.777861 15
-4.5952201 -4.9450459 -1.7671887 26
-5.04072 -5.4244609 -1.7545559 24
-5.5771217 -6.001698 -1.7414683 23
-6.1998391 -6.6718211 -1.7159896 16
-0.87400383 -0.93496162 -0.75901783 5
-7.0728068 -7.566103 -1.7016169 16
-2.2551992 -2.4124889 -1.8555101 4
-8.1514635 -8.7199907 -1.6775925 9
-2.3684163 -2.5336025 -1.8440843 4
-9.5730925 -10.240772 -1.639351 11
-2.4922047 -2.6660244 -1.8331082 6
-11.52768 -12.331684 -1.5748898 4
-2.6504169 -2.8352714 -1.8371071 3
-14.758121 -15.787433 -1.5112042 2
-2.8048401 -3.0004649 -1.8286879 7
-20.513615 -21.944347 -1.4008569 10
-2.9805205 -3.1883984 -1.8230505 10
-3.1640306 -3.3847075 -1.8092378 13
-3.3830845 -3.6190393 -1.8031301 11
-3.6268368 -3.8797922 -1.7945758 18
-3.9074376 -4.1799636 -1.7854612 8
-4.2340207 -4.5293245 -1.777861 12
-4.612515 -4.9342165 -1.7682016 27
-5.0594506 -5.412324 -1.7554783 25
-5.5975766 -5.9879818 -1.7422999 26
-6.2222915 -6.6562681 -1.7167302 16
-0.87055844 -0.92640233 -0.75391692 5
-7.0939422 -7.5489988 -1.7019411 16
-2.2638953 -2.4091179 -1.8574694 4
-8.1810455 -8.7058372 -1.6789843 9
-2.375041 -2.5273933 -1.8440843 3
-9.6039515 -10.220017 -1.6400479 11
-2.4991755 -2.6594908 -1.8331082 4
-11.573562 -12.315973 -1.5767477 4
-2.6565926 -2.8270056 -1.8362514 3
-14.817163 -15.767643 -1.5130179 2
-2.8151879 -2.9957745 -1.8303149 7
-20.594254 -21.915318 -1.4024407 10
-2.9888575 -3.1805844 -1.8230505 9
-3.1690536 -3.3723395 -1.8070555 11
-3.3925474 -3.6101699 -1.8031301 11
-3.6395767 -3.8730454 -1.7958564 17
-3.907908 -4.1585894 -1.7806952 7
-4.2498136 -4.5224271 -1.7795148 17
-4.6307163 -4.9277639 -1.7702277 27
-5.0749354 -5.4004784 -1.7559394 25
-5.6185923 -5.9790096 -1.7439632 26
-6.2410421 -6.6413879 -1.7171005 17
-0.87819237 -0.92866236 -0.75799763 5
-7.1203351 -7.5295434 -1.7025896 16
-2.2786407 -2.409595 -1.8633475 4
-8.2124376 -8.6844091 -1.6798193 10
-2.3829694 -2.5199194 -1.8440843 7
-9.64147 -10.195569 -1.6409771 12
-2.5038345 -2.6477306 -1.830415 4
-11.620406 -12.288235 -1.5778624 4
-2.6604924 -2.8133919 -1.8328288 3
-14.887188 -15.74276 -1.5151106 2
-2.8270962 -2.9895704 -1.8319418 7
-20.734381 -21.925993 -1.4072853 10
-3.000103 -3.1725199 -1.8238214 8
-3.1834726 -3.3664279 -1.8092378 10
-3.4077463 -3.6035907 -1.8051823 10
-23.453596 -24.801481 0.79250938 7
-3.6478207 -3.8574622 -1.7939357 19
-23.514063 -24.865425 1.5959482 7
-3.9248886 -4.1504531 -1.7824825 8
-23.539852 -24.892694 2.3957164 6
-4.2679629 -4.5132442 -1.7811686 13
-4.6461744 -4.9131918 -1.7702277 31
-5.0918765 -5.3845081 -1.7559394 25
-5.636004 -5.9599075 -1.7435474 21
-6.2632265 -6.6231761 -1.7174709 17
-0.88078225 -0.92620635 -0.75799763 5
-7.1454139 -7.5139208 -1.7035624 16
-2.2781513 -2.3956413 -1.8574694 3
-8.2407522 -8.6657476 -1.6806544 14
-2.3936477 -2.5170941 -1.8469012 6
-9.6794863 -10.178681 -1.6426032 12
-2.5259976 -2.6562696 -1.8411875 8
-11.664282 -12.265838 -1.5791628 4
-2.6745672 -2.8125014 -1.8371071 3
-14.926967 -15.696788 -1.5146921 2
-2.8354337 -2.9816642 -1.8319418 7
-20.853352 -21.92881 -1.4111984 10
-3.0089505 -3.1641297 -1.8238214 9
-3.1902933 -3.3548248 -1.8077829 12
-3.416501 -3.5926986 -1.8044983 11
-3.66119 -3.8500066 -1.7952161 15
-3.9404104 -4.1436272 -1.7842697 10
-4.2765751 -4.497129 -1.7795148 12
-4.6572104 -4.8973942 -1.7692146 24
-5.1109161 -5.3744988 -1.7573227 26
-5.6526256 -5.9441452 -1.7435474 24
-6.283052 -6.6070843 -1.7178411 17
-0.88709384 -0.9273181 -0.76105821 5
-7.1690407 -7.494113 -1.7038866 16
-2.2876599 -2.3913913 -1.8594289 4
-8.2705345 -8.6455526 -1.6814893 14
-2.4047675 -2.5138092 -1.849718 5
-9.7096443 -10.149918 -1.6426032 12
-2.5351033 -2.6500547 -1.8420852 8
-11.719895 -12.251321 -1.5817639 4
-2.6754026 -2.7967157 -1.8319731 3
-14.987267 -15.666847 -1.5160872 2
-2.8442681 -2.973238 -1.8319418 7
-20.959753 -21.910151 -1.4139934 11
-3.0221527 -3.1591887 -1.826134 7
-34.667068 -36.239006 -1.1643463 15
-3.2040968 -3.3493829 -1.8099654 10
-3.429744 -3.5852618 -1.8058664 10
-3.6752167 -3.8418651 -1.7964965 17
-3.9540071 -4.1332974 -1.7848655 9
-4.2925577 -4.4871988 -1.7806174 21
-4.6784077 -4.8905449 -1.7717471 31
-5.1295304 -5.3621235 -1.7582449 24
-5.6756463 -5.933002 -1.7452108 24
-6.3053451 -6.5912538 -1.7185818 17
-0.8874557 -0.92220294 -0.75901783 4
-7.1939816 -7.4756527 -1.7045351 17
-2.2887001 -2.3783114 -1.8545305 3
-8.3002701 -8.6252565 -1.6823244 14
-2.4109912 -2.5053906 -1.848779 7
-9.7452269 -10.126789 -1.6435324 12
-2.5367587 -2.6360824 -1.8375967 5
-11.758956 -12.219363 -1.5821354 4
-2.6836889 -2.7887654 -1.8319731 3
-15.062737 -15.652499 -1.519017 2
-2.856878 -2.9687355 -1.8343823 7
-21.085623 -21.911205 -1.4180927 11
-3.0302331 -3.1488781 -1.825363 7
-3.2140205 -3.3398614 -1.8099654 10
-3.4429729 -3.5777783 -1.8072344 9
-3.6892271 -3.8336742 -1.7977771 14
-3.9622819 -4.1174202 -1.7830782 13
-4.3071856 -4.4758282 -1.7811686 21
-4.6902146 -4.8738542 -1.7707342 26
-5.1467671 -5.3482823 -1.7587061 24
-5.6959381 -5.9189553 -1.7460424 24
-6.3262367 -6.5739326 -1.7189521 17
-0.89481264 -0.92466587 -0.7630986 4
-7.2148294 -7.4555345 -1.7045351 17
-2.3098831 -2.3869467 -1.8662866 3
-8.3312101 -8.6091604 -1.6837162 15
-2.417978 -2.4986479 -1.848779 4
-9.773468 -10.099536 -1.6435324 12
-2.5441101 -2.628988 -1.8375967 3
-11.793033 -12.186479 -1.5821354 4
-2.6990087 -2.7890546 -1.8371071 3
-15.131362 -15.636182 -1.5215282 2
-2.8588042 -2.9541812 -1.8303149 7
-21.098103 -21.801989 -1.4148319 11
-3.0364478 -3.1377513 -1.8238214 7
-3.2246301 -3.332212 -1.8106928 11
-3.4503367 -3.5654485 -1.8058664 9
-3.6999183 -3.8233569 -1.7977771 14
-23.721125 -24.512522 1.5907309 132
-3.9804029 -4.1131992 -1.786057 13
-4.3210044 -4.4651642 -1.7817199 15
-4.7038064 -4.8607373 -1.7707342 29
-5.1576223 -5.3296938 -1.7573227 22
-5.7124443 -5.9030261 -1.7460424 21
-6.34867 -6.5604777 -1.720063 17
-0.8961916 -0.92093062 -0.7620784 4
-7.2369976 -7.4367719 -1.7048594 17
-2.3116755 -2.3754885 -1.8623679 4
-8.3607435 -8.5915394 -1.6848296 15
-2.4150937 -2.4817615 -1.8412675 4
-9.805789 -10.076474 -1.6442293 12
-2.5514417 -2.6218734 -1.8375967 5
-11.846461 -12.173478 -1.5847363 4
-2.7030046 -2.7776201 -1.8345401 3
-15.16801 -15.586718 -1.5208306 2
-2.8657684 -2.9448769 -1.8295014 9
-3.0516336 -3.1358728 -1.8276756 7
-3.2352221 -3.3245292 -1.8114203 10
-3.4655225 -3.561187 -1.8086026 9
-23.719677 -24.374451 0.78963125 130
-3.7158663 -3.8184416 -1.8003379 17
-23.743505 -24.398935 1.5876564 130
-3.9905422 -4.1006994 -1.7854612 12
-23.772631 -24.428865 2.3835788 131
-4.3361382 -4.4558358 -1.7828224 18
-4.7173619 -4.8475828 -1.7707342 26
-5.1792717 -5.3222437 -1.7596283 28
-5.7316351 -5.8898549 -1.746874 24
-6.3724484 -6.5483575 -1.7215441 16
-0.89410657 -0.9133504 -0.75799763 4
-7.2659335 -7.422318 -1.7064805 17
-2.3113952 -2.3611434 -1.8564898 4
-8.3889694 -8.5695248 -1.6853863 15
-2.4310939 -2.4834182 -1.8478401 5
-9.8398123 -10.051595 -1.6449262 12
-2.5542088 -2.6091831 -1.8340058 5
-11.882528 -12.138275 -1.5847363 4
-2.7074404 -2.7657125 -1.8319731 3
-15.229542 -15.557327 -1.5223653 2
-2.8859966 -2.9481118 -1.8368226 7
-3.0583425 -3.1241672 -1.826134 10
-3.2411623 -3.3109217 -1.8092378 11
-3.4747589 -3.549546 -1.8079184 10
-23.748533 -24.259672 0.78819215 127
-3.7232032 -3.8033376 -1.7984172 15
-23.775265 -24.286978 1.5849546 132
-4.0053625 -4.0915699 -1.7866527 12
-23.803139 -24.315453 2.3793933 129
-4.3506846 -4.4443245 -1.7833737 21
-4.7371383 -4.8390956 -1.7727602 27
-5.1991243 -5.3110251 -1.7610116 29
-5.7572966 -5.8812108 -1.749369 23
-6.39185 -6.5294213 -1.7215441 16
-0.89560556 -0.90946782 -0.75697744 4
-7.2851548 -7.3979149 -1.705832 17
-2.3159437 -2.3517902 -1.8545305 4
-8.4171381 -8.5474195 -1.6859429 15
-2.4384515 -2.4761941 -1.8478401 5
-9.8709869 -10.02377 -1.6451585 14
-2.5694633 -2.6092336 -1.8393921 6
-11.935258 -12.119992 -1.5869658 4
-2.7194395 -2.7615314 -1.8345401 3
-15.299433 -15.536239 -1.524737 2
-2.8870389 -2.9317248 -1.8319418 7
-3.0663037 -3.113764 -1.825363 8
-23.722202 -24.089376 -0.78494263 12
-3.2575076 -3.3079274 -1.8128753 9
-23.742628 -24.110119 0 8
-3.486594 -3.5405598 -1.8086026 10
-23.785336 -24.153486 0.78703159 127
-3.7344716 -3.792274 -1.7984172 16
-23.806568 -24.175047 1.5822527 131
-4.0188246 -4.0810285 -1.7872485 12
-23.834581 -24.203495 2.3753474 130
-4.363852 -4.431396 -1.7833737 20
-4.7541904 -4.827776 -1.7737732 27
-5.2175908 -5.2983489 -1.7619339 28
-5.7733483 -5.8627086 -1.7489531 24
-6.4180903 -6.5174298 -1.7233957 16
-0.90661484 -0.91551954 -0.76411873 4
-7.3113399 -7.3831511 -1.707129 17
-2.3261828 -2.3490305 -1.8574694 4
-8.4479418 -8.5309172 -1.6873347 15
-2.4515698 -2.4756489 -1.8525348 5
-9.9073267 -10.004635 -1.6465523 15
-2.5679367 -2.5931587 -1.8331082 4
-11.985871 -12.103596 -1.5891953 4
-2.7271407 -2.7539263 -1.8345401 3
-15.375047 -15.526059 -1.5279458 2
-2.9003572 -2.9288442 -1.8351958 7
-3.0723898 -3.1025667 -1.8238214 8
-23.807671 -24.041508 -0.78554612 12
-3.2693541 -3.3014655 -1.8143302 10
-23.846455 -24.080671 0 8
-3.4991124 -3.5334804 -1.8099706 9
-23.810484 -24.04435 0.78563899 129
-3.7450471 -3.7818305 -1.7984172 16
-23.834623 -24.068726 1.5796441 132
-4.0342355 -4.0738597 -1.7890357 12
-23.859962 -24.094313 2.3711619 131
-4.387032 -4.4301214 -1.7877839 23
-4.7662921 -4.8131061 -1.7732667 24
-5.2323661 -5.2837582 -1.7619339 26
-5.7910743 -5.8479538 -1.749369 21
-6.4417968 -6.5050678 -1.7248769 16
-0.89961481 -0.90307575 -0.75595731 4
-7.3346066 -7.3628235 -1.7074533 16
-2.334373 -2.3433535 -1.8584492 4
-8.4802055 -8.5128298 -1.6887264 14
-2.452673 -2.4621086 -1.8478401 5
-9.935565 -9.9737883 -1.64632 15
-2.5794034 -2.5893266 -1.8358012 4
-12.04 -12.08632 -1.5916104 4
-2.7314723 -2.7419806 -1.8319731 3
-15.414006 -15.473306 -1.5272483 2
-2.9038765 -2.9150481 -1.8319418 8
-3.0828843 -3.0947444 -1.8245922 9
-3.2765057 -3.2891109 -1.8128753 9
-3.5082545 -3.5217512 -1.8092866 11
-23.84362 -23.935349 0.78438556 129
-3.7629375 -3.7774141 -1.8016185 17
-23.866453 -23.958269 1.5770354 132
-4.0449576 -4.0605192 -1.78844 13
-23.89192 -23.983835 2.3672557 129
-4.3947301 -4.4116368 -1.7855788 21
-4.7819171 -4.8003139 -1.7737732 26
-5.2507672 -5.2709675 -1.7628561 28
-5.8139224 -5.8362894 -1.7510322 27
-6.4596825 -6.4845338 -1.7245066 16
-0.91706198 -0.91482395 -0.7681995 4
-7.3618932 -7.3439264 -1.708426 17
-2.3380198 -2.332314 -1.8555101 4
-8.5083094 -8.487545 -1.6890048 15
-2.4641464 -2.4581325 -1.8506569 6
-9.9668493 -9.9425259 -1.64632 15
-2.5887904 -2.5824726 -1.836699 6
-12.082141 -12.052654 -1.5921677 4
-2.7439125 -2.737216 -1.8345401 3
-15.49079 -15.452986 -1.5300385 2
-2.9169006 -2.9097822 -1.8343823 9
-3.0965111 -3.0889542 -1.8269048 8
-24.711411 -24.651102 -0.81038165 12
-3.2868226 -3.2788012 -1.8128753 11
-3.5193012 -3.5107124 -1.8092866 10
-23.877645 -23.819374 0.78303939 130
-3.7707617 -3.7615592 -1.7996978 14
-23.900585 -23.842255 1.5743335 133
-4.0644526 -4.0545335 -1.7914187 14
-23.923363 -23.864979 2.3629308 132
-4.4072065 -4.396451 -1.7850275 17
-4.7983441 -4.786634 -1.7742797 27
-5.2659225 -5.2530713 -1.762395 27
-5.8363843 -5.8221407 -1.7522798 27
-6.4855881 -6.4697599 -1.7259878 16
-0.91579068 -0.90878481 -0.76513892 3
-7.3852968 -7.3287983 -1.7093987 16
-2.3503063 -2.3323262 -1.8604085 4
-8.5375299 -8.4722166 -1.6903964 15
-2.4718268 -2.4529169 -1.8515959 5
-9.982975 -9.9066038 -1.6446939 15
-2.5968111 -2.5769453 -1.8375967 4
-12.126374 -12.033607 -1.5938398 4
-2.7510691 -2.7300231 -1.8345401 3
-15.538274 -15.419404 -1.5307361 2
-2.9271023 -2.9047096 -1.8360093 7
-3.1045873 -3.080837 -1.8269048 8
-24.89366 -24.70322 -0.81423467 4
-3.2980399 -3.2728095 -1.8143302 10
-3.5338161 -3.5067821 -1.8120227 8
-23.900185 -23.717346 0.78173953 128
-3.7819414 -3.7530091 -1.8003379 16
-23.924633 -23.741608 1.571818 132
-4.0669222 -4.03581 -1.7878442 11
-23.946106 -23.762915 2.3590245 133
-4.4187016 -4.3848977 -1.7850275 18
-4.8177257 -4.7808695 -1.7768122 31
-5.2824197 -5.2420087 -1.7633172 26
-5.8516064 -5.8068409 -1.7522798 23
-6.5066891 -6.456912 -1.7270987 17
-0.89995843 -0.88809943 -0.74983615 2
-7.4085431 -7.3109188 -1.7100471 16
-2.3555691 -2.3245289 -1.8594289 4
-8.5639753 -8.4511251 -1.6909531 15
-2.4761531 -2.4435241 -1.849718 6
-9.9964609 -9.8647346 -1.6423709 15
-2.6039972 -2.5696836 -1.8375967 3
-12.172688 -12.012285 -1.5955118 4
-2.7561085 -2.7197905 -1.8328288 3
-15.609674 -15.403981 -1.5335263 2
-2.9352024 -2.8965244 -1.8360093 7
-3.111865 -3.070859 -1.826134 9
-25.131905 -24.800735 -0.81975883 8
-3.3045144 -3.2609699 -1.8128753 12
-3.539582 -3.4929399 -1.8099706 10
