# .PCD v0.7 - Point Cloud Data file format
VERSION 0.7
FIELDS x y z
SIZE 4 4 4
TYPE F F F
COUNT 1 1 1
WIDTH 81
HEIGHT 1
VIEWPOINT 0 0 0 1 0 0 0
POINTS 81
DATA ascii
42.629002 -5.0279999 1.598
49.896 -4.3850002 1.541
49.827999 -4.3000002 1.5420001
38.068001 -5.632 1.396
39.438999 -5.6440001 1.3770001
39.48 -5.5240002 1.3770001
42.558998 -5.0689998 1.335
49.889 -4.2740002 1.234
38.153999 -5.6570001 1.126
39.424 -5.7199998 1.1
39.501999 -5.6040001 1.099
39.485001 -5.539 1.099
37.750999 -5.6479998 0.93900001
38.030998 -5.6290002 0.93200004
39.452 -5.7119999 0.89500004
39.497002 -5.592 0.89399999
37.659 -5.6409998 0.71599996
26.913 -2.5220001 1.069
26.787001 -3.4909999 0.89300001
26.778 -3.404 0.89300001
26.674 -3.221 0.898
26.723 -3.184 0.89700001
26.733 -3.0999999 0.89700001
26.73 -3.0150001 0.89700001
26.743999 -2.931 0.89700001
26.733 -2.845 0.898
26.728001 -2.7590001 0.898
26.766001 -2.6359999 0.89700001
26.875999 -2.4760001 0.89399999
26.789 -3.506 0.73199999
26.780001 -3.4189999 0.73300004
26.761 -3.3310001 0.73400003
26.750999 -3.2449999 0.73500001
26.746 -3.1589999 0.736
26.743 -3.1159999 0.736
26.74 -3.03 0.73700005
26.733999 -2.9449999 0.73700005
26.740999 -2.8599999 0.73700005
26.774 -2.694 0.73700005
26.783001 -2.6099999 0.73700005
26.996 -2.5450001 0.72800004
26.836 -2.487 0.73500001
31.646 -1.988 0.523
21.597 -3.1900001 0.83700001
21.629 -3.125 0.83600003
21.558001 -3.046 0.84000003
26.732 -3.5999999 0.579
26.711 -3.5120001 0.58099997
26.693001 -3.467 0.58200002
26.672001 -3.3789999 0.58399999
26.667 -3.293 0.58399999
26.657 -3.207 0.58500004
26.659 -3.122 0.58599997
26.653 -3.0369999 0.58700001
26.638 -2.95 0.58800006
26.645 -2.9089999 0.58800006
26.646 -2.8239999 0.58800006
26.660999 -2.7409999 0.58800006
26.631001 -2.6530001 0.59000003
26.837999 -2.4189999 0.58000004
21.52 -3.1570001 0.70300007
21.752001 -3.122 0.69000006
26.746 -3.5020001 0.40799999
26.723 -3.414 0.40999997
26.709 -3.369 0.41100001
26.716999 -3.2850001 0.41100001
26.684 -3.1960001 0.41299999
26.672001 -3.109 0.41499996
26.674999 -2.9400001 0.41600001
26.691999 -2.8570001 0.41499996
26.669001 -2.812 0.41700006
26.68 -2.7290001 0.41700006
26.719999 -2.648 0.41499996
26.903 -2.4100001 0.40600002
21.518 -3.075 0.58800006
21.788 -3.0780001 0.57099998
26.934 -2.513 0.25900006
26.912001 -2.425 0.26100004
21.438999 -3.1110001 0.44200003
21.704 -3.0799999 0.42400002
21.566 -3.119 0.32599998
