# .PCD v0.7 - Point Cloud Data file format
VERSION 0.7
FIELDS x y z intensity
SIZE 4 4 4 4
TYPE F F F F
COUNT 1 1 1 1
WIDTH 1361
HEIGHT 1
VIEWPOINT 0 0 0 1 0 0 0
POINTS 1361
DATA ascii
-16.850674 -50.157623 2.4675243 90
-1.7644531 -5.2520614 -1.728865 7
-1.9053301 -5.6713953 -1.7155669 8
-2.0690739 -6.1587939 -1.7008368 14
-2.2609069 -6.7298031 -1.6821604 13
-2.5026219 -7.4492903 -1.6703625 9
-2.7584009 -8.2106409 -1.6319306 7
-0.47388044 -1.3960068 -0.87429875 3
-3.1376152 -9.2431164 -1.6036961 8
-0.50722551 -1.4942381 -0.8866086 11
-3.5689056 -10.513657 -1.5604088 6
-0.54832906 -1.6153252 -0.90701908 10
-4.1753325 -12.300133 -1.5190189 6
-0.59228969 -1.7448292 -0.92553109 12
-5.0004554 -14.730866 -1.4513435 2
-1.2144399 -3.5776243 -1.7883344 3
-4.9349027 -14.537755 -1.0735521 9
-1.2926453 -3.8080106 -1.7904547 7
-4.9197488 -14.493113 -0.71375132 34
-1.3709086 -4.0385666 -1.7814249 7
-4.9231257 -14.503061 -0.35558936 40
-1.4515938 -4.276257 -1.7634068 8
-4.9752402 -14.656585 0 12
-1.552559 -4.5736914 -1.7579836 8
-17.049055 -50.224895 1.2314255 24
-1.6584414 -4.8856111 -1.7433571 14
-17.046696 -50.217945 2.4731143 90
-1.7815578 -5.2483001 -1.7294607 8
-1.920666 -5.6580997 -1.7133619 8
-2.0890338 -6.1540956 -1.7013433 14
-2.282038 -6.7226672 -1.6821604 13
-2.5241256 -7.4358339 -1.6691151 10
-2.7879722 -8.2131014 -1.6341524 7
-0.47578925 -1.3880855 -0.87021804 3
-3.1643863 -9.2318993 -1.6033719 8
-0.50996065 -1.4877783 -0.88366956 12
-3.5994422 -10.501148 -1.5601305 6
-0.55426455 -1.6170322 -0.90889692 10
-4.211165 -12.285811 -1.5187865 5
-0.60267961 -1.75828 -0.93361044 11
-5.0389752 -14.700894 -1.4498572 2
-1.2285664 -3.5842657 -1.7934684 3
-4.9825439 -14.536261 -1.0745287 10
-1.3039383 -3.8041584 -1.7904547 7
-4.9705024 -14.50113 -0.71486932 32
-1.3834836 -4.0362267 -1.7821957 7
-4.9765086 -14.518653 -0.35633212 40
-1.4642752 -4.2719316 -1.7634068 12
-1.566732 -4.5708427 -1.7586676 7
-17.217449 -50.230831 1.2328181 49
-1.6741587 -4.8842535 -1.7446376 14
-17.233839 -50.278648 2.478611 60
-1.7977411 -5.2447972 -1.7300565 8
-1.9399389 -5.6596503 -1.7155669 8
-2.1054022 -6.1423793 -1.6998237 13
-2.3038676 -6.7213898 -1.6835437 13
-2.5442741 -7.4227605 -1.6678675 13
-2.8123286 -8.204793 -1.6341524 7
-0.48103091 -1.3899189 -0.87225842 3
-3.1949911 -9.2317944 -1.6049931 7
-0.51608348 -1.4912019 -0.8866086 11
-3.6318793 -10.494165 -1.5606872 6
-0.55848241 -1.6137117 -0.90795803 10
-4.2508478 -12.282648 -1.519948 5
-0.61023194 -1.7632399 -0.93720126 8
-5.0799661 -14.678351 -1.4491142 2
-1.2403781 -3.5840213 -1.7951796 3
-1.3128295 -3.7933664 -1.7872008 7
-5.021347 -14.508974 -0.71598732 31
-1.3924353 -4.0233841 -1.7783415 8
-5.0300274 -14.534056 -0.35707486 37
-1.4745066 -4.2605257 -1.7604969 8
-12.411006 -35.861088 0 5
-1.5784431 -4.5608459 -1.7566154 9
-17.405647 -50.292896 1.2356035 49
-1.6905023 -4.8846364 -1.7465583 14
-17.424761 -50.348122 2.4845738 59
-1.8120459 -5.2358317 -1.728865 6
-1.9560941 -5.6520529 -1.7150156 9
-2.1242504 -6.1379337 -1.7003303 14
-2.3238001 -6.7145243 -1.6835437 13
-2.5656466 -7.4133301 -1.6674517 15
-2.8347321 -8.1908407 -1.6330415 7
-0.49235779 -1.411479 -0.88654101 3
-3.2175391 -9.2239599 -1.6049931 7
-0.51915139 -1.4882901 -0.88562894 12
-3.6627293 -10.500219 -1.5629139 5
-0.56126052 -1.6090076 -0.90608013 11
-4.277576 -12.262847 -1.5187865 5
-0.62277943 -1.7853684 -0.94976908 7
-5.1282787 -14.70162 -1.4526441 2
-1.2449641 -3.5690317 -1.7891901 4
-5.0722904 -14.541114 -1.0769005 19
-1.3263068 -3.8022232 -1.7928951 7
-5.0673122 -14.526843 -0.71747798 30
-1.4046935 -4.0269399 -1.7814249 7
-5.0754037 -14.55004 -0.35777119 34
-1.4855263 -4.2586694 -1.7612243 8
-1.5902016 -4.5587502 -1.7572995 9
-1.6999364 -4.8733349 -1.7439973 12
-1.8242052 -5.2295856 -1.7282692 7
-1.9705321 -5.6490717 -1.7155669 7
-2.1398792 -6.134552 -1.7008368 13
-2.3427639 -6.7161765 -1.6853882 13
-2.585042 -7.4107332 -1.6682835 14
-2.8579741 -8.1931686 -1.6348929 7
-0.48649943 -1.3807207 -0.86817765 3
-3.2491245 -9.2212515 -1.6062901 8
-0.52440387 -1.4882963 -0.8866086 10
-3.6937239 -10.483057 -1.5620788 4
-0.56748629 -1.6105675 -0.90795803 11
-4.3213606 -12.264337 -1.520645 5
-0.63432461 -1.8002595 -0.95874608 6
-5.1770868 -14.692949 -1.4533871 2
-1.2513644 -3.5514631 -1.7823447 3
-5.1312079 -14.562742 -1.0796907 30
-1.3333879 -3.7842517 -1.7863873 8
-5.1208916 -14.533463 -0.71859598 29
-1.4173375 -4.0225072 -1.7814249 7
-5.1323853 -14.566083 -0.35856035 35
-1.5007553 -4.2592525 -1.7634068 8
-12.571218 -35.678032 0 5
-1.6038909 -4.551959 -1.7566154 10
-19.954771 -56.633095 1.3940867 24
-1.7196457 -4.8804798 -1.748479 14
-1.8418944 -5.2274303 -1.7294607 9
-1.9889083 -5.6446662 -1.7161182 7
-2.1597838 -6.1296239 -1.7013433 14
-2.3644984 -6.7106185 -1.6858493 13
-2.6089606 -7.4044204 -1.6686993 14
-2.8843527 -8.1860027 -1.6352633 7
-0.4955391 -1.3939446 -0.87735933 3
-3.2748623 -9.2121429 -1.6062901 8
-0.5285579 -1.4868261 -0.8866086 11
-3.726964 -10.483898 -1.563749 5
-0.57139015 -1.6073126 -0.90701908 11
-4.3575883 -12.257836 -1.5213419 5
-0.64892769 -1.8254247 -0.9731093 6
-5.2154288 -14.67093 -1.4526441 2
-1.2649101 -3.5581746 -1.7874787 3
-5.1738596 -14.553996 -1.0801092 23
-1.3463982 -3.7873995 -1.7896413 7
-5.169487 -14.541696 -0.71971399 31
-1.428565 -4.0185337 -1.7814249 7
-5.1837568 -14.581837 -0.35930309 34
-1.5138916 -4.2585559 -1.7648617 9
-1.6178552 -4.5510039 -1.7579836 8
-20.019751 -56.315281 1.3876342 24
-1.7307292 -4.8685174 -1.745918 12
-1.8584034 -5.227663 -1.731248 7
-2.0053072 -5.6409016 -1.7166694 10
-2.1768925 -6.1235685 -1.7013433 10
-2.3825769 -6.7021561 -1.6853882 11
-2.6283171 -7.3934193 -1.6678675 14
-2.9078596 -8.1797686 -1.6356336 7
-0.49642807 -1.3826667 -0.87123823 2
-3.3051207 -9.2055235 -1.6069385 8
-0.53558308 -1.4917225 -0.89052731 10
-3.7625587 -10.479594 -1.5648624 6
-0.57763028 -1.6088337 -0.90889692 11
-4.3960762 -12.244086 -1.5213419 5
-0.6558671 -1.8267411 -0.97490472 6
-5.262166 -14.656346 -1.4528298 2
-1.2742496 -3.5490792 -1.7849116 3
-1.3564378 -3.7779922 -1.7872008 7
-5.2252722 -14.553588 -0.72111148 31
-1.4399352 -4.0105519 -1.7798831 8
-5.2396765 -14.593707 -0.35999942 32
-1.5260036 -4.2502723 -1.7634068 9
-1.6321446 -4.5458989 -1.7579836 8
-20.116844 -56.030052 1.3821564 24
-1.7453753 -4.8612728 -1.7452778 15
-1.8780432 -5.2307835 -1.7342268 7
-2.0236685 -5.6363835 -1.7172208 7
-2.1935043 -6.1094155 -1.6993172 13
-2.4016476 -6.6891427 -1.6840048 13
-2.6535144 -7.3906493 -1.6691151 15
-2.9342067 -8.1724424 -1.636004 7
-0.50321633 -1.3893621 -0.87633914 3
-3.3321586 -9.1999693 -1.607587 7
-0.53737152 -1.4836634 -0.8866086 11
-3.7951808 -10.478357 -1.566254 5
-0.58212072 -1.6072143 -0.90889692 12
-4.4316039 -12.235497 -1.5218065 4
-0.66157436 -1.8265829 -0.97580242 6
-5.3057861 -14.649084 -1.453573 2
-1.2847711 -3.5472066 -1.7857673 3
-5.2845926 -14.590569 -1.0851318 3
-1.3682271 -3.7776253 -1.7888278 7
-5.286984 -14.597171 -0.72399962 11
-1.4536431 -4.0134559 -1.7829666 7
-5.2913036 -14.609097 -0.36074218 33
-1.5372323 -4.2442427 -1.7626792 8
-1.6461127 -4.5448575 -1.7593516 8
-20.207863 -55.793179 1.3777 24
-1.7582985 -4.8545985 -1.7446376 16
-1.8919927 -5.2237234 -1.733631 7
-2.0407097 -5.6343255 -1.7183232 8
-2.213851 -6.1123624 -1.7018497 12
-2.4229689 -6.6897292 -1.6858493 14
-2.6781397 -7.3942471 -1.67161 16
-2.9583557 -8.1679125 -1.6367445 8
-0.50532323 -1.3831041 -0.87327856 2
-3.3598685 -9.1961899 -1.6085597 7
-0.54091424 -1.4805192 -0.88562894 10
-3.8264661 -10.473299 -1.5670891 5
-0.58842462 -1.6105584 -0.91171378 12
-4.4637094 -12.217477 -1.5211096 4
-0.66973913 -1.8331217 -0.98029095 6
-5.3487239 -14.639822 -1.4541303 2
-1.2983938 -3.5537927 -1.7909013 3
-5.3287401 -14.585125 -1.0858293 2
-1.3793979 -3.775506 -1.7896413 7
-5.3887434 -14.749359 -0.73229152 1
-1.4623119 -4.0024471 -1.7798831 10
-5.3458023 -14.631825 -0.36167061 32
-1.5509963 -4.245183 -1.7648617 9
-1.6594429 -4.5420084 -1.7600356 7
-20.301149 -55.565628 1.3734756 24
-1.7744491 -4.8567882 -1.7471986 14
-1.9046072 -5.2130399 -1.7318437 7
-2.0551162 -5.6249933 -1.7172208 10
-2.2315753 -6.1079736 -1.7023562 13
-2.4436443 -6.6884208 -1.6872326 13
-2.6960926 -7.3793893 -1.6699467 15
-2.9825022 -8.163312 -1.6374851 8
-0.51275265 -1.3913723 -0.87939972 3
-3.3848536 -9.1849194 -1.6082355 8
-0.54564947 -1.480639 -0.8866086 11
-3.8598073 -10.473722 -1.5687592 5
-0.59047735 -1.6022811 -0.90795803 12
-4.5026178 -12.218012 -1.5227357 5
-0.67918158 -1.842983 -0.98657489 6
-5.3888965 -14.622959 -1.4539446 2
-1.3039372 -3.5382795 -1.7849116 3
-5.4011836 -14.656301 -1.0922469 6
-1.3893039 -3.7699249 -1.7888278 6
-5.4119492 -14.685514 -0.72986919 1
-1.4715686 -3.9931531 -1.7775706 9
-5.3983946 -14.648734 -0.36245978 31
-1.5622009 -4.2390871 -1.7641342 10
-1.6714702 -4.535593 -1.7593516 9
-20.454165 -55.503094 1.3733363 24
-1.7880049 -4.8518143 -1.7471986 14
-1.921798 -5.2148666 -1.7342268 8
-2.071481 -5.6210365 -1.717772 9
-2.2466159 -6.0962715 -1.7008368 13
-2.4616392 -6.6797447 -1.6867715 13
-2.7173657 -7.3736672 -1.6703625 15
-3.0066459 -8.1586399 -1.6382258 7
-0.50848389 -1.3672719 -0.86511707 2
-3.4162185 -9.1859341 -1.610181 7
-0.55064797 -1.4806478 -0.88758826 10
-3.8894856 -10.458511 -1.5682025 5
-0.59707546 -1.6054875 -0.91077483 12
-4.5374646 -12.200874 -1.522271 5
-0.68277788 -1.8359344 -0.98388177 7
-5.4447541 -14.640502 -1.4572886 2
-1.3188406 -3.5462556 -1.7909013 3
-5.4557729 -14.670132 -1.0944791 3
-1.3966621 -3.7555113 -1.7839469 6
-5.4568906 -14.673137 -0.73005551 1
-1.4859831 -3.9956884 -1.7806541 9
-5.4529858 -14.662638 -0.36320251 30
-1.5760704 -4.2379255 -1.7655891 10
-1.6862304 -4.5341368 -1.7607197 8
-20.618755 -55.442162 1.3733363 24
-1.803053 -4.8482637 -1.7478387 15
-1.9346004 -5.2019839 -1.7318437 8
-2.0874796 -5.6130633 -1.7172208 9
-2.2687407 -6.1004596 -1.7038758 16
-2.4800909 -6.6687636 -1.6858493 12
-2.7399137 -7.3674059 -1.6707784 15
-3.0315249 -8.1515245 -1.6385961 7
-0.51676929 -1.3770312 -0.87225842 3
-3.4441519 -9.1776056 -1.6105052 7
-0.55626398 -1.4822724 -0.88954765 9
-3.9211953 -10.44878 -1.5684808 5
-0.60059547 -1.6004022 -0.90889692 13
-4.5813227 -12.207816 -1.5248264 6
-0.68633837 -1.8288807 -0.98118865 7
-5.480473 -14.603775 -1.455245 2
-1.3280864 -3.5389419 -1.7891901 3
-5.5168009 -14.700578 -1.0979669 3
-1.4103665 -3.758193 -1.7872008 7
-5.4926815 -14.636307 -0.72903067 1
-1.4991289 -3.9947174 -1.7821957 9
-5.5105171 -14.683833 -0.36413094 31
-1.5860193 -4.2262535 -1.7626792 11
-1.699676 -4.5291138 -1.7607197 8
-20.844984 -55.545475 1.3774214 24
-1.8167645 -4.8411183 -1.7471986 15
-1.9486848 -5.1926455 -1.7306522 7
-2.1061511 -5.6122451 -1.7188746 9
-2.2888703 -6.0991354 -1.7053952 16
-2.5026016 -6.6686635 -1.6876938 13
-2.7638233 -7.3647385 -1.6720258 16
-3.0556977 -8.1424942 -1.6385961 6
-0.52426606 -1.3852359 -0.87837952 3
-3.4704659 -9.1697979 -1.6108295 8
-0.55916673 -1.4774518 -0.88758826 9
-3.9517605 -10.441493 -1.5690376 5
-0.60443723 -1.5970672 -0.90795803 14
-4.6104736 -12.18197 -1.5232003 4
-0.69017768 -1.8236139 -0.97939324 5
-5.5311012 -14.614488 -1.457846 2
-1.3392435 -3.5386007 -1.7909013 4
-1.4234428 -3.7610753 -1.7904547 5
-5.5455537 -14.652676 -0.73061448 2
-1.5102783 -3.9905155 -1.7821957 7
-5.56424 -14.702048 -0.36496654 30
-1.6044095 -4.2392321 -1.7699541 9
-1.7129823 -4.5261073 -1.7614037 7
-21.062296 -55.651608 1.3815064 24
-1.830947 -4.8377981 -1.7478387 11
-1.9645294 -5.1907549 -1.7318437 7
-2.1211348 -5.6045437 -1.7183232 8
-2.3045237 -6.0891008 -1.7043823 16
-2.5212142 -6.6616492 -1.6876938 12
-2.7829936 -7.3533325 -1.6711942 17
-3.0819023 -8.1431208 -1.6404476 7
-0.52493161 -1.3739403 -0.87225842 3
-3.5020738 -9.1662245 -1.6121264 7
-0.566917 -1.4838318 -0.89248663 9
-3.9901989 -10.443828 -1.5712643 5
-0.60882133 -1.5935109 -0.90701908 14
-4.6473036 -12.163714 -1.5227357 5
-0.69717902 -1.8247757 -0.98118865 3
-5.5805402 -14.606339 -1.4587749 1
-1.3497086 -3.5326872 -1.7900456 3
-5.6174674 -14.702992 -1.1006176 9
-1.4372078 -3.7617052 -1.7928951 7
-5.6008286 -14.659442 -0.73182565 2
-1.5228075 -3.9857512 -1.7821957 7
-5.6246724 -14.72185 -0.36589497 29
-1.61373 -4.2237291 -1.7655891 9
-1.7258514 -4.5171924 -1.7600356 7
-21.384745 -55.971794 1.3911158 49
-1.8447838 -4.8284826 -1.7465583 14
-1.9835526 -5.1916914 -1.7342268 6
-2.1380453 -5.5960565 -1.717772 8
-2.3270946 -6.090868 -1.7069148 19
-2.5442138 -6.6591496 -1.6890771 12
-2.8074775 -7.3482084 -1.6720258 17
-3.1088724 -8.1370697 -1.6411881 8
-0.53148073 -1.3787973 -0.87633914 3
-3.5292552 -9.1557932 -1.6121264 7
-0.56692719 -1.4707545 -0.88562894 9
-4.0211687 -10.431943 -1.5712643 5
-0.61291158 -1.5900497 -0.90608013 14
-4.6862316 -12.157286 -1.5236648 4
-0.70580423 -1.8310372 -0.98567718 3
-5.626718 -14.59715 -1.4595181 2
-1.3614848 -3.5320406 -1.791757 5
-5.6782894 -14.730939 -1.103966 4
-1.4424483 -3.7420809 -1.7855738 6
-5.6651378 -14.696819 -0.73452753 2
-1.5352905 -3.9829373 -1.7829666 7
-5.6834302 -14.744276 -0.36686981 29
-1.6242447 -4.2137074 -1.7634068 11
-1.7392466 -4.5120521 -1.7600356 8
-21.48456 -55.736458 1.386845 24
-1.8597835 -4.8247557 -1.7471986 13
-1.9996345 -5.1875648 -1.7348225 7
-2.1567142 -5.5950694 -1.7194258 11
-2.3444602 -6.0821314 -1.7064083 14
-2.5653605 -6.6552029 -1.6899993 14
-2.832082 -7.3471475 -1.6736891 25
-3.1330018 -8.1278105 -1.6411881 7
-0.53446567 -1.3757976 -0.87531894 3
-3.5567861 -9.1557198 -1.6137476 7
-0.57330126 -1.4757665 -0.88954765 9
-4.0463142 -10.415841 -1.5704293 4
-0.61707217 -1.5884397 -0.90608013 14
-4.7180429 -12.144976 -1.5236648 4
-0.71383131 -1.8375127 -0.99016565 1
-5.669241 -14.593507 -1.4606328 2
-1.3733453 -3.5352042 -1.7951796 5
-5.7695751 -14.851783 -1.1141504 3
-1.4542249 -3.7434011 -1.7880143 6
-5.7144461 -14.709871 -0.73592502 2
-1.5437077 -3.9737434 -1.7806541 7
-5.7364917 -14.766622 -0.36779824 30
-1.6359452 -4.2111773 -1.7641342 8
-1.7510532 -4.507483 -1.7600356 10
-21.573929 -55.534649 1.3832241 24
-1.8744667 -4.8251686 -1.7491193 14
-2.0111346 -5.1769729 -1.7330352 7
-2.1699622 -5.5858202 -1.7183232 8
-2.3596747 -6.0741692 -1.7059017 16
-2.5813656 -6.6448359 -1.6890771 14
-2.8527241 -7.3433552 -1.6745207 27
-3.1556931 -8.1232443 -1.6419288 7
-0.53815722 -1.3725103 -0.87429875 4
-3.5876932 -9.150013 -1.6147203 7
-0.57729816 -1.4723349 -0.88856792 9
-4.0811853 -10.408609 -1.5712643 4
-0.6207701 -1.5832052 -0.90420222 14
-4.7532735 -12.122696 -1.5227357 5
-1.3008915 -3.3177793 -1.7900184 3
-5.7143326 -14.573771 -1.460447 2
-1.3837848 -3.5291893 -1.7943239 3
-1.4673119 -3.7422159 -1.7896413 7
-5.7730279 -14.723466 -0.73750883 2
-1.5561839 -3.9688742 -1.7806541 8
-5.7996411 -14.791341 -0.36886594 29
-1.6518872 -4.2129545 -1.7670441 8
-1.7672633 -4.5072088 -1.7620878 7
-21.805222 -55.611794 1.386845 49
-1.8875412 -4.8139639 -1.7471986 11
-2.0308733 -5.1795168 -1.736014 8
-2.1903071 -5.5861349 -1.7205284 10
-2.3787456 -6.0667262 -1.7059017 15
-2.6064906 -6.6475644 -1.6918439 15
-2.877208 -7.3379993 -1.6753525 23
-3.1826322 -8.11695 -1.6426694 7
-0.54325277 -1.3742017 -0.87633914 4
-3.6096032 -9.1307821 -1.6130991 7
-0.58204848 -1.4723384 -0.88954765 9
-4.1153326 -10.410065 -1.5732127 4
-0.62518883 -1.5814655 -0.90420222 14
-4.790029 -12.116765 -1.5236648 4
-1.3081803 -3.3091474 -1.7873254 3
-5.7572041 -14.563312 -1.4610044 2
-1.391641 -3.520268 -1.791757 4
-5.8488035 -14.795019 -1.1124762 10
-1.4790998 -3.741502 -1.7912682 7
-5.9536715 -15.060292 -0.75521052 4
-1.5733672 -3.9799592 -1.7875917 7
-5.8548903 -14.810417 -0.36974797 29
-1.6595361 -4.1979303 -1.7626792 8
-1.779843 -4.5022559 -1.7620878 8
-22.005272 -55.664108 1.3896767 49
-1.9016736 -4.8104362 -1.7478387 12
-2.0460312 -5.1756005 -1.7366098 6
-2.2073114 -5.5835724 -1.7216309 11
-2.3956778 -6.0600595 -1.7059017 15
-2.6250439 -6.6402602 -1.6918439 14
-2.8940923 -7.3208394 -1.6732733 18
-3.2067318 -8.1116858 -1.64341 7
-0.54199302 -1.3598952 -0.86817765 3
-3.6402016 -9.1334991 -1.6153688 7
-0.58744884 -1.4739468 -0.89150697 9
-4.1465864 -10.404052 -1.5740478 3
-0.62894887 -1.5780731 -0.90326327 14
-4.8267889 -12.110723 -1.5245941 4
-1.3174161 -3.3054814 -1.7873254 3
-5.8096461 -14.576776 -1.4639769 2
-1.4054816 -3.5264435 -1.796891 3
-5.8841867 -14.763802 -1.1113602 2
-1.4881893 -3.7339625 -1.7896413 7
-6.014936 -15.09186 -0.75763285 4
-1.578326 -3.9601209 -1.7806541 7
-5.916213 -14.844158 -0.37100133 30
-1.6760806 -4.2053938 -1.7677716 7
-1.7924087 -4.4972682 -1.7620878 8
-22.207268 -55.719456 1.3926013 49
-1.9172039 -4.8103876 -1.7497594 14
-2.0590625 -5.1663198 -1.7354183 7
-2.2207599 -5.5720286 -1.7199771 10
-2.4154565 -6.0605354 -1.7079278 15
-2.6406946 -6.6256723 -1.6899993 13
-2.9138002 -7.3109117 -1.6728575 18
-3.227916 -8.0990477 -1.6426694 7
-0.54947209 -1.3661658 -0.87327856 4
-3.6696138 -9.1238489 -1.6156931 7
-0.59337771 -1.4753294 -0.89346635 9
-4.1829467 -10.400161 -1.5754395 3
-0.63588029 -1.5810045 -0.90608013 13
-4.8640704 -12.093656 -1.5243617 5
-1.3297946 -3.3063006 -1.7900184 4
-5.8561549 -14.5603 -1.4641627 2
-1.4158788 -3.5203335 -1.7960353 3
-5.942451 -14.774859 -1.1135924 2
-1.5019579 -3.7343543 -1.7920816 6
-6.0220623 -14.972798 -0.75260186 4
-1.5942024 -3.9637039 -1.7845082 7
-5.9814706 -14.871875 -0.37216187 24
-1.6878936 -4.1966505 -1.7663167 8
-1.8030219 -4.4828968 -1.7586676 7
-22.441893 -55.797821 1.396315 49
-1.9315996 -4.8025827 -1.7491193 14
-2.0752828 -5.1598258 -1.7354183 6
-2.2389712 -5.5668082 -1.7205284 10
-2.4337623 -6.0511222 -1.7074213 17
-2.6636753 -6.6227603 -1.6913828 14
-2.9367537 -7.3017216 -1.6728575 19
-3.2562776 -8.0961609 -1.6441506 8
-0.55481648 -1.3677176 -0.87531894 4
-3.6988943 -9.1184072 -1.6166657 7
-0.59578621 -1.4687151 -0.89052731 9
-4.2130413 -10.385869 -1.5751611 3
-0.63857698 -1.5742017 -0.90326327 11
-4.9044118 -12.090216 -1.5257556 5
-1.3449733 -3.3155897 -1.7972001 3
-5.901576 -14.548396 -1.46472 2
-1.424279 -3.5110917 -1.7934684 3
-7.3564587 -18.13493 -1.3684825 1
-1.5102842 -3.723109 -1.7888278 6
-6.0153937 -14.828976 -0.74626654 4
-1.605956 -3.9589565 -1.7845082 8
-6.0473661 -14.907794 -0.3735081 15
-1.7017385 -4.1950769 -1.7677716 7
-1.8219666 -4.4914598 -1.7641399 7
-22.662216 -55.866245 1.3997037 50
-1.9465529 -4.7985864 -1.7497594 14
-2.0898654 -5.1518764 -1.7348225 7
-2.256201 -5.5619221 -1.7210797 8
-2.4538875 -6.049253 -1.7089407 15
-2.6825821 -6.6130247 -1.6909217 13
-2.9584055 -7.2929764 -1.6728575 20
-3.2788072 -8.0828218 -1.64341 7
-0.55709362 -1.3630756 -0.87327856 4
-3.7227535 -9.1086931 -1.6166657 8
-0.59896958 -1.4655362 -0.88954765 9
-4.2439637 -10.38397 -1.5765529 3
-0.64870882 -1.5872363 -0.91171378 10
-4.9352956 -12.075496 -1.5255233 5
-1.3455352 -3.2922046 -1.7864276 3
-5.9434104 -14.542112 -1.4656489 2
-1.4348339 -3.5106976 -1.7951796 4
-7.3993816 -18.104528 -1.3676454 1
-1.5220997 -3.7242162 -1.7912682 5
-1.6135222 -3.9479053 -1.7814249 8
-6.1083112 -14.945585 -0.37485433 3
-1.7134202 -4.1923318 -1.7684991 8
-1.831586 -4.4814553 -1.7620878 9
-22.86286 -55.939983 1.4030461 50
-1.9591088 -4.7934737 -1.7497594 14
-2.1040683 -5.1481547 -1.7354183 7
-2.2722092 -5.5595555 -1.7221822 9
-2.4697161 -6.0428081 -1.7089407 16
-2.7020946 -6.6113834 -1.692305 14
-2.9819291 -7.2960715 -1.6753525 24
-3.2999568 -8.0742102 -1.64341 7
-0.5637576 -1.3677785 -0.87735933 4
-3.7512672 -9.1012564 -1.6173142 7
-0.60265082 -1.4621406 -0.88856792 9
-4.2747545 -10.371332 -1.5765529 3
-0.65947175 -1.5999984 -0.92016429 8
-4.9764013 -12.073655 -1.5271494 6
-1.3593837 -3.2981122 -1.7918139 3
-5.9857726 -14.522573 -1.4654632 2
-1.4479995 -3.5131102 -1.7986023 3
-7.4568677 -18.091717 -1.368343 1
-1.5345355 -3.7230623 -1.7928951 7
-6.1163917 -14.839478 -0.74850255 18
-1.6252288 -3.9431005 -1.7814249 8
-1.7265614 -4.188952 -1.7692266 9
-1.8470231 -4.481214 -1.7641399 8
-23.085882 -56.010548 1.4065278 50
-1.9762108 -4.7946472 -1.7523204 17
-2.1200614 -5.1436543 -1.736014 7
-2.2894273 -5.5545669 -1.7227335 7
-2.4883718 -6.0372424 -1.7094473 14
-2.7231822 -6.6069355 -1.6932272 13
-3.0013273 -7.2817655 -1.6741049 19
-3.3298905 -8.0789204 -1.6463724 8
-0.56451213 -1.3581573 -0.87225842 4
-3.7827995 -9.1010199 -1.6192597 7
-0.60698646 -1.460346 -0.88856792 9
-4.309309 -10.367747 -1.5779446 3
-0.67302716 -1.619233 -0.93237054 8
-5.0129652 -12.060671 -1.5273817 4
-1.3677915 -3.2907634 -1.7900184 3
-6.0311284 -14.510265 -1.4660205 2
-1.4563353 -3.5037906 -1.7960353 3
-7.5189371 -18.089777 -1.3698776 1
-1.5413678 -3.7083697 -1.7880143 6
-6.1810975 -14.871076 -0.75101805 18
-1.6376293 -3.939965 -1.7821957 5
-1.7375526 -4.1803703 -1.7677716 8
-1.8595897 -4.4739785 -1.7634559 8
-23.306454 -56.072891 1.4098237 51
-1.9904282 -4.7887626 -1.7523204 16
-2.1360462 -5.1391044 -1.7366098 6
-2.305898 -5.5477495 -1.7227335 8
-2.5040457 -6.0244727 -1.7079278 13
-2.7405326 -6.5934353 -1.6918439 12
-3.0244212 -7.2764416 -1.6749365 18
-3.3530922 -8.0671902 -1.6460022 7
-0.56720948 -1.3533033 -0.87021804 4
-3.8097858 -9.089757 -1.6192597 8
-0.6126647 -1.4617548 -0.89052731 9
-4.3408175 -10.356743 -1.578223 4
-0.69557631 -1.6595734 -0.95678306 9
-5.0456562 -12.038416 -1.5264525 5
-1.3810036 -3.2949321 -1.794507 4
-6.0833917 -14.514345 -1.4682499 2
-1.4681224 -3.5027885 -1.7977467 3
-7.5687213 -18.058189 -1.3691801 1
-1.5537764 -3.7071502 -1.7896413 6
-6.2537675 -14.920844 -0.75446522 7
-1.650739 -3.9384928 -1.7837374 5
-1.7513887 -4.1786327 -1.7692266 7
-1.8699502 -4.4615083 -1.7607197 7
-23.545374 -56.176834 1.4141873 51
-2.0046279 -4.7828355 -1.7523204 15
-2.1505468 -5.1309829 -1.736014 7
-2.321605 -5.5391102 -1.7221822 10
-2.5241535 -6.0223699 -1.7094473 13
-2.7623405 -6.5906596 -1.6932272 14
-3.0497785 -7.2764568 -1.6770157 21
-3.377773 -8.0590181 -1.6463724 7
-0.57189196 -1.353199 -0.87123823 4
-3.8382754 -9.0820484 -1.6199082 7
-0.61835665 -1.4631428 -0.89248663 9
-4.3753824 -10.352939 -1.5796146 4
-0.71012139 -1.6802746 -0.96992826 8
-5.0859928 -12.03437 -1.5278463 6
-1.3921652 -3.2941127 -1.7963023 3
-6.134182 -14.514574 -1.4701078 2
-1.4778051 -3.496752 -1.796891 5
-7.6300344 -18.054029 -1.3705752 1
-1.5633464 -3.699158 -1.7880143 6
-1.6652911 -3.9403772 -1.7868208 7
-1.7630539 -4.1717019 -1.7684991 7
-1.8853743 -4.461134 -1.7627718 7
-23.762543 -56.22644 1.4172047 52
-2.0173349 -4.773376 -1.75104 15
-2.1650181 -5.1228213 -1.7354183 7
-2.338778 -5.5339684 -1.7227335 8
-2.5412579 -6.013072 -1.7089407 13
-2.7826407 -6.5842271 -1.6936883 13
-3.0713546 -7.2673759 -1.6770157 23
-3.4031999 -8.0525808 -1.6471131 8
-0.58106124 -1.3642581 -0.87939972 4
-3.8674891 -9.0803728 -1.6215293 7
-0.62039036 -1.4565977 -0.88954765 9
-4.4066043 -10.346147 -1.5804497 4
-0.71204293 -1.6717863 -0.96617246 5
-5.1195788 -12.020122 -1.5278463 4
-1.3971567 -3.2803464 -1.7909162 4
-6.1676674 -14.480899 -1.4684356 2
-1.4854391 -3.4876223 -1.7943239 4
-7.6898026 -18.05468 -1.3722494 1
-1.5743862 -3.6964588 -1.7888278 7
-10.469188 -24.580324 -1.2459204 7
-1.6762881 -3.9357116 -1.7868208 10
-1.7717766 -4.1599059 -1.7655891 7
-17.527695 -41.152798 0 10
-1.9007705 -4.4627676 -1.7655079 8
-23.987629 -56.319904 1.4212433 52
-2.0328841 -4.7729535 -1.7529607 14
-2.1823077 -5.1237812 -1.7378013 10
-2.3564827 -5.532722 -1.7243873 11
-2.5610723 -6.013072 -1.7109668 14
-2.8002539 -6.5746403 -1.6932272 13
-3.0931702 -7.2623706 -1.6778474 26
-3.4249034 -8.0412378 -1.6467427 7
-0.58554721 -1.3642108 -0.88041985 3
-3.8920527 -9.0677242 -1.6212051 8
-0.62720639 -1.4612687 -0.89346635 9
-4.4346976 -10.331981 -1.5801713 4
-0.70626104 -1.6454505 -0.95208836 3
-5.1601772 -12.022206 -1.529937 6
-1.4084264 -3.281359 -1.7936093 3
-6.2175069 -14.485579 -1.4706651 2
-1.4965985 -3.4867828 -1.7960353 3
-7.7512078 -18.058802 -1.3742025 1
-1.5890263 -3.7021217 -1.7937086 7
-10.567732 -24.620754 -1.2494607 7
-1.6858164 -3.9276235 -1.7852792 7
-1.7863255 -4.1617899 -1.7684991 9
-17.679621 -41.190071 0 11
-1.9132255 -4.4574423 -1.7655079 8
-24.205534 -56.394176 1.4248178 52
-2.0454574 -4.7655172 -1.7523204 15
-2.1958544 -5.1159129 -1.7372055 10
-2.3719239 -5.5261202 -1.7243873 8
-2.5755646 -6.0005631 -1.7094473 12
-2.8186028 -6.5667949 -1.6932272 14
-3.1134384 -7.2537045 -1.6778474 24
-3.4504464 -8.038867 -1.648224 7
-0.58071089 -1.3419436 -0.86715746 2
-3.922859 -9.0651922 -1.6228263 7
-0.62807691 -1.4514002 -0.88856792 10
-4.4731994 -10.336954 -1.5829549 5
-0.7216599 -1.6676576 -0.96617246 3
-5.197403 -12.010489 -1.5304016 6
-1.4238346 -3.2902875 -1.8007909 3
-6.265204 -14.478032 -1.4717798 2
-1.5098091 -3.4889631 -1.7994579 3
-7.7984161 -18.021076 -1.3730865 1
-1.5963757 -3.6890066 -1.7896413 9
-10.659779 -24.633295 -1.2516967 7
-1.6974624 -3.9226043 -1.7852792 7
-1.8016254 -4.1633105 -1.771409 10
-17.839088 -41.223701 0 11
-1.927189 -4.4534712 -1.7661921 7
-24.428339 -56.450558 1.4280673 53
-2.0580831 -4.7559495 -1.75104 13
-2.2155735 -5.1198883 -1.74078 8
-2.3898368 -5.5225868 -1.7254899 7
-2.5933571 -5.9928946 -1.7094473 12
-2.8380744 -6.558403 -1.6932272 14
-3.1357238 -7.2462301 -1.6782632 15
-3.4781857 -8.0376129 -1.6500754 8
-0.58354753 -1.3369595 -0.86511707 2
-3.9489503 -9.0473976 -1.6218536 7
-0.63193601 -1.4478217 -0.88758826 10
-4.5001059 -10.310143 -1.5810064 4
-0.75373894 -1.7268832 -1.0018523 2
-5.2359037 -11.995922 -1.5306339 6
-1.4291596 -3.2743323 -1.794507 3
-6.31464 -14.467403 -1.4727087 2
-1.5178701 -3.4775755 -1.7960353 3
-7.8701563 -18.031231 -1.3757372 1
-1.6116116 -3.6923459 -1.7937086 9
-10.737913 -24.601517 -1.2517899 7
-1.7097772 -3.9172521 -1.7852792 7
-1.8184222 -4.1661673 -1.7750463 9
-17.983709 -41.202282 0 11
-1.942674 -4.4508395 -1.7675601 7
-24.66795 -56.516472 1.4316882 53
-2.0775619 -4.7598796 -1.7548814 17
-2.2308834 -5.1111526 -1.7401843 11
-2.4071746 -5.5150518 -1.7254899 10
-2.6168153 -5.9953575 -1.7124863 14
-2.8586643 -6.5494547 -1.6932272 14
-3.1631684 -7.2471008 -1.6807581 14
-3.5057781 -8.0320501 -1.6511863 8
-0.58312351 -1.3258766 -0.85899597 2
-3.9773781 -9.043561 -1.6231506 8
-0.6380825 -1.4508396 -0.89052731 10
-4.5296769 -10.29935 -1.5812848 4
-1.3649786 -3.1036191 -1.8027709 3
-5.2661834 -11.973981 -1.5297047 6
-1.4433343 -3.2817802 -1.8007909 3
-6.358223 -14.457005 -1.4734519 2
-1.5290308 -3.4766328 -1.7977467 3
-7.9188719 -18.005529 -1.3754581 1
-1.6270652 -3.6995385 -1.799403 7
-10.821049 -24.604353 -1.2534668 7
-1.7207096 -3.9124622 -1.7852792 7
-16.088675 -36.581612 -0.92782831 5
-1.822549 -4.1440196 -1.7677716 8
-19.370068 -44.042679 0 14
-1.9520692 -4.4385157 -1.7648239 7
-24.893293 -56.601109 1.4355876 54
-2.0877945 -4.7471213 -1.7523204 14
-2.2451477 -5.1049032 -1.7401843 8
-2.4217923 -5.5065484 -1.7249386 6
-2.6327684 -5.9862556 -1.7119797 14
-2.8785095 -6.5450091 -1.6941495 14
-3.1841815 -7.2400303 -1.6811739 14
-3.5289853 -8.0240278 -1.6515567 8
-0.59658092 -1.3462614 -0.87327856 2
-4.0042162 -9.036027 -1.6237991 8
-0.64283794 -1.4506463 -0.89150697 10
-4.5656419 -10.302957 -1.5837899 5
-1.3786482 -3.1110966 -1.8093435 6
-5.305234 -11.971941 -1.5313308 5
-1.4474247 -3.2662992 -1.794507 3
-6.4026036 -14.448296 -1.4743807 2
-1.5401982 -3.4756548 -1.7994579 3
-7.9723554 -17.990643 -1.3760163 1
-1.634429 -3.6882987 -1.796149 7
-10.914806 -24.630661 -1.256355 7
-1.7331239 -3.9110165 -1.7868208 7
-1.8310951 -4.1321011 -1.7648617 8
-18.520643 -41.794205 0 11
-1.9636947 -4.4313293 -1.7641399 9
-25.112822 -56.670303 1.4391156 54
-2.1025782 -4.7447376 -1.7536008 16
-2.2578475 -5.0951223 -1.7389928 8
-2.4379387 -5.5015216 -1.7254899 6
-2.6471233 -5.9735732 -1.7104603 13
-2.8967755 -6.5369453 -1.6941495 14
-3.2051795 -7.2328987 -1.6815897 13
-3.552175 -8.0159388 -1.651927 8
-0.59987116 -1.3429147 -0.87225842 1
-4.0342283 -9.0313148 -1.6250961 8
-0.64429468 -1.4423646 -0.88758826 10
-4.5921526 -10.280323 -1.5823982 4
-1.3900336 -3.1118293 -1.8121603 6
-5.3407321 -11.956147 -1.5313308 5
-1.462212 -3.2734129 -1.8007909 7
-6.4535661 -14.447417 -1.4762386 2
-1.5512412 -3.4727201 -1.8003136 5
-8.0362778 -17.990589 -1.3778299 1
-1.6453651 -3.6834328 -1.796149 7
-10.965024 -24.547092 -1.2537464 7
-1.7417097 -3.8991168 -1.7837374 9
-1.848666 -4.138557 -1.7699541 7
-19.695194 -44.09108 0 14
-1.9776006 -4.4271994 -1.7648239 9
-25.340385 -56.728809 1.4425044 54
-2.1143284 -4.7332878 -1.7516801 14
-2.2752912 -5.0936303 -1.74078 8
-2.4550354 -5.4960194 -1.7260411 8
-2.6687813 -5.9745259 -1.7129928 14
-2.9161582 -6.5283217 -1.6941495 14
-3.2234342 -7.2162123 -1.6799265 13
-3.5767448 -8.0071583 -1.6522973 8
-0.60056198 -1.3350644 -0.86817765 1
-4.0594778 -9.0243216 -1.6257445 7
-0.65021449 -1.4454433 -0.89052731 10
-4.6206756 -10.271878 -1.5829549 4
-1.3967267 -3.1049588 -1.8102823 4
-5.3744597 -11.947559 -1.5320277 5
-1.4707767 -3.2695737 -1.8007909 6
-6.4856486 -14.41776 -1.4749382 2
-1.5581026 -3.4637015 -1.7977467 3
-8.0849867 -17.973129 -1.3781089 1
-1.6557523 -3.680779 -1.7969625 7
-11.076787 -24.623978 -1.25915 7
-1.7579683 -3.9080079 -1.7899042 7
-1.8594943 -4.1337028 -1.7699541 8
-19.858965 -44.14698 0 14
-1.9899552 -4.4237204 -1.7655079 8
-25.565918 -56.833679 1.4468681 55
-2.1282675 -4.7311926 -1.7529607 14
-2.2870519 -5.0841742 -1.7395885 7
-2.470993 -5.4930797 -1.7271436 7
-2.6828258 -5.9639893 -1.7119797 13
-2.9348359 -6.5242143 -1.6950717 14
-3.2447228 -7.2131009 -1.6811739 13
-3.6001141 -8.0031443 -1.6534082 7
-0.59670651 -1.3160427 -0.85695565 1
-4.0862355 -9.0122375 -1.6257445 8
-0.65162027 -1.4371556 -0.8866086 10
-4.6552219 -10.267142 -1.5843465 4
-1.4124961 -3.1152756 -1.8187329 5
-5.4139867 -11.940606 -1.5331893 5
-1.4767811 -3.257057 -1.7963023 4
-6.5366216 -14.41659 -1.4767959 2
-1.5691192 -3.4607096 -1.7986023 3
-8.1522837 -17.979952 -1.3804806 1
-1.6696841 -3.6825063 -1.8002164 7
-11.166299 -24.627394 -1.2610134 7
-1.7657455 -3.8943708 -1.78605 7
-1.8748283 -4.1349545 -1.772864 7
-20.052633 -44.226299 0 14
-2.0022957 -4.4160852 -1.7648239 10
-25.794708 -56.890511 1.4502568 55
-2.1422958 -4.7248569 -1.7529607 14
-2.3029153 -5.0791044 -1.7401843 5
-2.4872804 -5.485724 -1.7271436 8
-2.6981127 -5.950717 -1.7104603 13
-2.9565916 -6.5207953 -1.696455 13
-3.2677259 -7.207005 -1.6820055 14
-3.6270905 -7.9995875 -1.6548895 7
-0.60990381 -1.3346063 -0.87021804 1
-4.1145978 -9.0036631 -1.626393 8
-0.65878046 -1.4415594 -0.89052731 10
-4.6881342 -10.258689 -1.5851816 4
-1.4151272 -3.0966158 -1.8102823 4
-5.4510427 -11.928103 -1.5336539 5
-1.488667 -3.2575374 -1.7989955 5
-6.5835061 -14.406188 -1.4777249 2
-1.5816345 -3.4609711 -1.8011693 3
-8.2014494 -17.946611 -1.379783 1
-1.6775652 -3.6708889 -1.7969625 7
-11.222713 -24.557812 -1.25915 7
-1.7780596 -3.8907931 -1.7868208 7
-1.8824427 -4.1192069 -1.7684991 6
-20.258583 -44.330322 0 14
-2.016952 -4.4135437 -1.7661921 8
-26.037357 -56.975578 1.4543884 56
-2.158668 -4.72365 -1.7548814 14
-2.3187687 -5.0739861 -1.74078 5
-2.5011487 -5.473074 -1.7254899 6
-2.7197778 -5.9514837 -1.7129928 13
-2.970264 -6.4996037 -1.6932272 13
-3.2882822 -7.1954985 -1.6815897 15
-3.6540773 -7.9959407 -1.6563706 8
-0.61121386 -1.3264343 -0.86613727 1
-4.147819 -9.0014467 -1.6283385 7
-0.66257626 -1.4378991 -0.88954765 10
-4.724484 -10.252904 -1.5865734 3
-1.4241095 -3.0905509 -1.8093435 4
-5.4893203 -11.912724 -1.5338862 5
-1.4973977 -3.2495983 -1.7972001 5
-6.6345654 -14.398094 -1.4790254 2
-1.5902301 -3.4510598 -1.7986023 3
-8.273654 -17.955185 -1.3824338 1
-1.6875601 -3.6622818 -1.7953355 7
-11.303152 -24.529692 -1.2595228 7
-1.7895018 -3.883512 -1.78605 9
-1.8961539 -4.1149645 -1.7692266 8
-19.326387 -41.941425 0 12
-2.0300212 -4.4054785 -1.7655079 10
-26.283165 -57.038773 1.4581021 56
-2.1719112 -4.7134032 -1.7536008 15
-2.3370945 -5.071878 -1.7425673 7
-2.5223534 -5.4739199 -1.7282462 10
-2.7408907 -5.9481816 -1.7145123 14
-2.9939263 -6.4973102 -1.6950717 15
-3.314146 -7.1922398 -1.683253 12
-3.6767118 -7.9790668 -1.6552597 8
-0.61491561 -1.3247223 -0.86613727 1
-4.1754327 -8.9951992 -1.6293112 8
-0.66585493 -1.4344616 -0.88856792 9
-4.7530971 -10.239671 -1.5865734 3
-1.4252993 -3.0705445 -1.7999539 3
-5.5200562 -11.891943 -1.5331893 5
-1.5064664 -3.245404 -1.7972001 5
-6.6772618 -14.38493 -1.4795827 2
-1.599861 -3.4466057 -1.7986023 3
-8.3271217 -17.939249 -1.3829918 1
-1.6962419 -3.6542404 -1.7937086 8
-11.414507 -24.59045 -1.2642742 7
-1.8042246 -3.8868692 -1.7899042 8
-1.9099908 -4.1147232 -1.771409 8
-2.0470634 -4.4100204 -1.7696122 8
-2.1898515 -4.7176313 -1.7574422 17
-2.3496411 -5.0618687 -1.7413758 7
-2.5368202 -5.4651108 -1.727695 8
-2.7550466 -5.9352398 -1.7129928 14
-3.0136971 -6.492455 -1.6959939 12
-3.3325703 -7.1794081 -1.6824214 16
-3.7039442 -7.9794645 -1.6574816 7
-0.61715525 -1.3198833 -0.86409694 1
-4.2022076 -8.9870796 -1.6299597 8
-0.66542685 -1.4231197 -0.88268989 8
-4.7858672 -10.235328 -1.5879651 4
-1.442844 -3.0857482 -1.8112212 3
-5.5608158 -11.892677 -1.53528 5
-1.5170374 -3.2444224 -1.7989955 5
-6.7182498 -14.368031 -1.4797685 2
-1.6125423 -3.4486747 -1.802025 3
-8.3797207 -17.921347 -1.3834103 1
-1.7079877 -3.6527996 -1.7953355 7
-11.494979 -24.583817 -1.2655786 7
-1.8166351 -3.8851593 -1.7914459 7
-1.9206847 -4.1076856 -1.7706815 8
-2.0561862 -4.3974767 -1.7668761 8
-2.1973994 -4.6994829 -1.7529607 16
-2.3645761 -5.0570168 -1.7419715 8
-2.5537002 -5.4614887 -1.7287976 6
-2.7732491 -5.9310284 -1.7140058 13
-3.0359373 -6.4928284 -1.6982995 16
-3.3484628 -7.1612129 -1.6803423 19
-3.7253802 -7.96731 -1.6571113 7
-0.62083864 -1.3181547 -0.86409694 1
-4.2289696 -8.9788809 -1.6306081 7
-0.66939837 -1.4212559 -0.88268989 5
-4.8144312 -10.221924 -1.5879651 4
-1.4522078 -3.0833046 -1.8121603 5
-5.5965438 -11.882493 -1.5359769 5
-1.5260916 -3.2401733 -1.7989955 5
-6.7676802 -14.369031 -1.4818121 2
-1.6213963 -3.4425228 -1.8011693 4
-8.4484358 -17.937586 -1.3864796 1
-1.7228526 -3.6579332 -1.8002164 7
-11.559329 -24.542583 -1.2651128 7
-1.8251184 -3.8750625 -1.7891333 10
-1.9313543 -4.1006207 -1.7699541 8
-2.0716615 -4.3985186 -1.7696122 7
-2.2129362 -4.6984711 -1.7548814 14
-2.3803158 -5.0538483 -1.743163 8
-2.5689416 -5.4543362 -1.7287976 10
-2.7914498 -5.9267616 -1.7150189 14
-3.0490816 -6.4737616 -1.6955328 14
-3.3734488 -7.1624532 -1.6828372 18
-3.7484519 -7.9586535 -1.6574816 8
-0.63212293 -1.3318477 -0.87429875 1
-4.2598228 -8.9752083 -1.6322293 8
-0.67211711 -1.4161131 -0.88073051 3
-4.8455882 -10.209383 -1.5882435 4
-1.4643785 -3.0853636 -1.8159161 5
-5.636034 -11.874808 -1.5371383 5
-1.5356987 -3.2356312 -1.7989955 4
-6.8119917 -14.352486 -1.4821837 2
-1.6323783 -3.4393301 -1.802025 3
-8.505043 -17.919649 -1.3870378 1
-1.7289978 -3.6429017 -1.7953355 7
-11.640663 -24.526226 -1.2660444 7
-1.8334427 -3.8629613 -1.78605 7
-1.9451101 -4.0982385 -1.771409 7
-2.0838971 -4.390655 -1.7689282 9
-2.2260547 -4.6901727 -1.7542411 13
-2.3920257 -5.0398645 -1.74078 7
-2.5842893 -5.444953 -1.7282462 10
-2.8081927 -5.9167051 -1.7145123 21
-3.0716138 -6.4717188 -1.6973773 14
-3.3938468 -7.1506453 -1.6824214 18
-3.7745774 -7.9528236 -1.6585925 7
-0.62493873 -1.306688 -0.85899597 1
-4.2889886 -8.9678707 -1.6332021 7
-0.67932498 -1.4204047 -0.88464922 2
-4.8818402 -10.207468 -1.5901918 4
-1.4720027 -3.0778191 -1.8140382 5
-5.6738138 -11.86341 -1.5378352 6
-1.5437499 -3.2278359 -1.7972001 4
-6.8648562 -14.353768 -1.4844131 2
-1.6425759 -3.4344716 -1.802025 3
-8.5581741 -17.894335 -1.3870378 1
-1.7413756 -3.6410522 -1.7969625 8
-11.751309 -24.570881 -1.2701437 7
-1.8456925 -3.8591692 -1.7868208 5
-1.9620841 -4.1025329 -1.7757739 10
-2.0977261 -4.386148 -1.7696122 9
-2.2415957 -4.6869659 -1.7555215 13
-2.4143825 -5.0482464 -1.7461418 8
-2.6045809 -5.4459333 -1.7310026 8
-2.8324139 -5.9223108 -1.7185644 18
-3.0916419 -6.4643321 -1.6978384 16
-3.4192684 -7.1493683 -1.6845006 13
-3.7998531 -7.9451351 -1.6593331 7
-0.6303066 -1.3079274 -0.86103636 1
-4.3155775 -8.9551058 -1.6332021 8
-0.70473135 -1.4623636 -0.91208023 1
-4.9112449 -10.191154 -1.5899135 4
-1.4795951 -3.0702562 -1.8121603 6
-5.7133002 -11.855471 -1.5389968 6
-1.5548722 -3.2264612 -1.7989955 4
-6.9022274 -14.322574 -1.4832984 2
-1.6519742 -3.4279542 -1.8011693 4
-8.6224899 -17.892229 -1.3888514 1
-1.756137 -3.644099 -1.8010298 7
-11.8311 -24.550304 -1.270889 7
-1.8595383 -3.8586633 -1.7891333 6
-1.9718215 -4.0916586 -1.7735914 10
-2.1082833 -4.3748255 -1.7675601 8
-2.2546699 -4.6785874 -1.7548814 12
-2.4252059 -5.0324607 -1.743163 8
-2.6207278 -5.4381814 -1.7310026 9
-2.8449335 -5.9034228 -1.7155253 15
-3.1108084 -6.4551306 -1.6978384 16
-3.4421644 -7.1427164 -1.6853322 14
-3.8242633 -7.9355965 -1.6597034 8
-0.63771224 -1.3139 -0.86613727 1
-4.3440151 -8.9501209 -1.6344991 8
-1.4176246 -2.9207799 -1.8241605 1
-4.9414144 -10.180964 -1.5904702 4
-1.4935604 -3.0772331 -1.8187329 7
-5.7498541 -11.846619 -1.5399259 6
-1.5646564 -3.2237144 -1.7998931 4
-6.952631 -14.32474 -1.4855278 2
-1.6615404 -3.4233277 -1.8011693 3
-8.6854877 -17.895004 -1.3909441 1
-1.7623174 -3.6309624 -1.7969625 6
-11.881291 -24.479427 -1.2689326 7
-1.8703064 -3.8534555 -1.7891333 6
-1.9840534 -4.0878124 -1.7743189 8
-2.1188505 -4.3655396 -1.7661921 7
-2.2685535 -4.6739774 -1.7555215 14
-2.440917 -5.0291042 -1.7443545 7
-2.6367433 -5.4325714 -1.7315539 10
-2.8647871 -5.9024177 -1.7175514 19
-3.1296721 -6.4481692 -1.6982995 17
-3.4561179 -7.1207566 -1.6824214 16
-3.851558 -7.9354949 -1.6619252 7
-0.63578886 -1.2995284 -0.85797578 2
-4.377315 -8.9470663 -1.6364444 8
-1.4183645 -2.8990834 -1.8133839 2
-4.9777265 -10.174284 -1.591862 4
-1.496236 -3.0582497 -1.8102823 3
-5.7914076 -11.837419 -1.5410875 6
-1.5732054 -3.2155724 -1.7980977 4
-6.9993491 -14.306405 -1.4858993 2
-1.6683147 -3.409972 -1.796891 4
-8.7451706 -17.874798 -1.3915021 1
-1.7713069 -3.6204844 -1.794522 5
-11.970428 -24.467104 -1.270237 7
-1.8807811 -3.8442454 -1.7875917 7
-1.9944296 -4.0765386 -1.7721364 10
-20.737659 -42.38699 0 13
-2.1325548 -4.3588614 -1.7661921 7
-2.2865567 -4.6736355 -1.7580825 14
-2.4558654 -5.0196958 -1.7437588 8
-2.6580217 -5.4328957 -1.7343103 8
-2.8850164 -5.8968644 -1.7185644 18
-3.1499143 -6.4383054 -1.6982995 14
-3.4784713 -7.1098638 -1.6824214 14
-3.8756053 -7.9215903 -1.6615549 8
-0.64222896 -1.3040323 -0.86205655 3
-4.3998513 -8.9338055 -1.6361202 8
-1.4290309 -2.9016171 -1.8173027 3
-5.0078454 -10.168324 -1.5929753 4
-1.5034572 -3.052738 -1.8093435 4
-5.823256 -11.823997 -1.5413198 6
-1.5816183 -3.2114427 -1.7980977 3
-7.0402985 -14.295177 -1.4866425 2
-1.6820283 -3.415323 -1.802025 5
-8.7910557 -17.850052 -1.3913627 1
-1.7823937 -3.6191127 -1.796149 7
-12.062688 -24.493034 -1.2732183 8
-1.8916543 -3.8409638 -1.7883625 8
-2.0067413 -4.074646 -1.7735914 9
-2.1472805 -4.3600073 -1.7689282 9
-2.2971101 -4.6642337 -1.7568021 12
-2.4689984 -5.0132494 -1.7437588 6
-2.670537 -5.4224687 -1.7332077 9
-2.8961704 -5.8806129 -1.7160318 17
-3.165899 -6.4282908 -1.6978384 14
-3.499666 -7.1059976 -1.6836689 14
-3.8971989 -7.9131804 -1.6619252 8
-0.64892536 -1.3083982 -0.86613727 4
-4.4247823 -8.921484 -1.6361202 8
-1.4402272 -2.9038634 -1.8212214 3
-5.0371013 -10.156075 -1.5932536 4
-1.5158993 -3.0564377 -1.8140382 3
-5.8588996 -11.813029 -1.5420167 5
-1.5905802 -3.2070134 -1.7980977 4
-7.0863843 -14.28795 -1.4879429 2
-1.6915591 -3.4106126 -1.802025 3
-8.8470736 -17.837946 -1.3923392 1
-1.7941169 -3.6173949 -1.797776 6
-12.180749 -24.559481 -1.2784356 8
-1.9040128 -3.838973 -1.7899042 7
-2.0197675 -4.0723639 -1.7750463 7
-2.1619525 -4.359045 -1.7709804 8
-2.3126519 -4.6628933 -1.7587228 11
-2.4880784 -5.0165973 -1.7473333 7
-2.6856689 -5.4149899 -1.7332077 10
-2.9168792 -5.8811688 -1.7185644 18
-3.1872966 -6.4263988 -1.6996828 13
-3.5221035 -7.1014547 -1.6849164 16
-3.9210281 -7.9057879 -1.6626658 8
-0.64764839 -1.2955823 -0.85899597 4
-4.4563179 -8.9146004 -1.6374172 8
-1.4470038 -2.8946457 -1.8182824 3
-5.0760674 -10.154372 -1.5954804 4
-1.5262834 -3.0532398 -1.814977 3
-5.8986473 -11.799895 -1.5427136 5
-1.6022457 -3.2051978 -1.7998931 3
-7.1258941 -14.25493 -1.4868283 2
-1.7063069 -3.4133663 -1.8063033 3
-8.9155579 -17.835047 -1.3942924 2
-1.8079232 -3.6166434 -1.8002164 7
-12.300723 -24.606869 -1.2829076 8
-1.9152387 -3.8313217 -1.7891333 5
-2.0308852 -4.0626659 -1.7735914 6
-21.342636 -42.694679 0 13
-2.1764765 -4.3539128 -1.7716644 8
-2.3272893 -4.6556048 -1.7587228 14
-2.5004115 -5.001925 -1.7449503 7
-2.7000885 -5.4013672 -1.7315539 10
-2.9370713 -5.8754377 -1.7195773 19
-3.203119 -6.4076505 -1.6973773 14
-3.5461454 -7.0938544 -1.685748 16
-3.9511182 -7.9039783 -1.6648877 7
-0.64684713 -1.2844366 -0.85287488 3
-4.4836359 -8.9031019 -1.6377414 7
-1.4602916 -2.8996832 -1.8241605 2
-5.1008286 -10.128654 -1.5938103 4
-1.5353359 -3.0486977 -1.814977 3
-5.9407802 -11.796535 -1.544572 6
-1.6101409 -3.1972373 -1.7980977 5
-7.1851759 -14.267516 -1.4903582 2
-1.7123617 -3.4002159 -1.802025 5
-8.9765129 -17.824553 -1.395548 2
-1.8153589 -3.6047361 -1.7969625 7
-12.381765 -24.586323 -1.2837461 8
-1.9274281 -3.8272705 -1.7899042 6
-2.0437684 -4.0582862 -1.7743189 6
-2.1860039 -4.3407216 -1.7689282 8
-2.3402402 -4.6469865 -1.7580825 13
-2.5143826 -4.9927793 -1.7443545 7
-2.7195616 -5.4002004 -1.7337589 10
-2.9518805 -5.8615131 -1.7180579 19
-3.2282441 -6.4102855 -1.7006052 14
-3.5610182 -7.0710707 -1.6828372 15
-3.9727845 -7.88871 -1.664147 8
-0.65120947 -1.2841594 -0.85389507 3
-4.5138359 -8.9011068 -1.6396868 8
-1.4675947 -2.8940389 -1.8231808 3
-5.1380506 -10.132033 -1.5965939 4
-1.5438434 -3.0443983 -1.814977 5
-5.9736991 -11.779899 -1.544572 4
-1.6263379 -3.2070742 -1.8061771 8
-7.2249899 -14.247396 -1.4903582 2
-1.720215 -3.3921962 -1.8003136 3
-9.0208397 -17.78874 -1.3947109 2
-1.8262445 -3.6012821 -1.797776 7
-1.938943 -3.8235192 -1.790675 7
-2.0559359 -4.0542245 -1.7750463 5
-2.198967 -4.3362765 -1.7696122 10
-2.3532081 -4.6404333 -1.7580825 10
-2.5326328 -4.9942522 -1.7473333 9
-2.7320225 -5.3874412 -1.7321051 10
-2.9708624 -5.8584237 -1.7195773 17
-3.2426116 -6.3943024 -1.6987606 15
-3.583405 -7.0663333 -1.6840847 15
-3.9965761 -7.8810906 -1.6648877 8
-0.64719099 -1.2669023 -0.8436932 2
-4.5429196 -8.8929472 -1.6406596 9
-1.4737954 -2.8850136 -1.8202417 3
-5.1743975 -10.12909 -1.5985422 5
-1.5536729 -3.0413768 -1.8159161 3
-6.0149503 -11.774506 -1.5461981 5
-1.6366594 -3.2038262 -1.8070748 5
-7.267231 -14.225896 -1.4903582 2
-1.7360289 -3.3983462 -1.8063033 3
-9.0826559 -17.779663 -1.3961061 2
-1.8327657 -3.5877123 -1.7937086 6
-12.523167 -24.514601 -1.2837461 8
-1.9511186 -3.8193929 -1.7914459 10
-2.0637183 -4.0398116 -1.771409 6
-2.2152431 -4.3364272 -1.7723484 8
-2.370414 -4.6401801 -1.7606435 14
-2.5465713 -4.9850154 -1.7467375 8
-2.7523685 -5.3878717 -1.7348615 11
-2.9829507 -5.8392453 -1.7165383 15
-3.2642257 -6.3898525 -1.7001439 14
-3.6052454 -7.0574121 -1.6845006 15
-4.0217304 -7.8726988 -1.6656282 8
-0.64757895 -1.2589712 -0.83961248 3
-4.5713468 -8.8872471 -1.6419566 8
-1.4866314 -2.8901899 -1.8261198 3
-5.2035689 -10.116363 -1.5988206 5
-1.5645832 -3.0417373 -1.8187329 4
-6.0505333 -11.762962 -1.546895 5
-1.6415123 -3.1912968 -1.8025863 4
-7.3178592 -14.226797 -1.4925876 2
-1.7388971 -3.3806248 -1.7994579 3
-9.1477852 -17.784391 -1.3984778 2
-1.8411058 -3.5793307 -1.7920816 6
-12.64275 -24.579023 -1.2889634 8
-1.9651533 -3.8204939 -1.7945292 6
-2.077548 -4.0390029 -1.7735914 7
-22.068125 -42.90308 0 14
-2.2290635 -4.3335667 -1.7737164 7
-2.3807623 -4.6284881 -1.7587228 14
-2.5639753 -4.9846759 -1.7491205 6
-2.7665241 -5.3784547 -1.7343103 9
-3.0001302 -5.832613 -1.7170448 17
-3.2829471 -6.382443 -1.7006052 14
-3.626729 -7.0507965 -1.6853322 14
-4.0445986 -7.8631849 -1.6659986 8
-0.65685123 -1.267736 -0.84675378 4
-4.5995111 -8.8771486 -1.6426051 9
-1.5008153 -2.8966033 -1.8329775 3
-5.2372065 -10.107913 -1.599934 5
-1.5703517 -3.0308101 -1.814977 5
-6.08358 -11.741431 -1.5464305 5
-1.6468629 -3.1784782 -1.7980977 4
-7.3490453 -14.183805 -1.4903582 2
-1.7547414 -3.3866858 -1.8054476 4
-9.2115259 -17.778429 -1.400152 2
-1.8567611 -3.583586 -1.7969625 6
-12.718378 -24.546724 -1.289243 8
-1.9764802 -3.8146462 -1.7945292 7
-2.0929511 -4.0394373 -1.7765013 7
-2.2401824 -4.3235965 -1.7723484 8
-2.3962283 -4.6247683 -1.7600032 14
-2.5805104 -4.9804368 -1.750312 8
-2.7807012 -5.3668089 -1.7332077 10
-3.020983 -5.8305573 -1.7190708 17
-3.3009744 -6.3709464 -1.7001439 13
-3.6476331 -7.0400047 -1.6853322 14
-4.0706239 -7.8563848 -1.6671095 8
-0.65561497 -1.2567457 -0.84063268 4
-4.6261086 -8.8677692 -1.6432536 8
-1.50164 -2.8784878 -1.8241605 3
-5.2608323 -10.084469 -1.5985422 4
-1.5820762 -3.0326757 -1.8187329 4
-6.122776 -11.736725 -1.5480565 5
-1.6623454 -3.1865432 -1.8052794 5
-7.3996778 -14.184413 -1.4925876 2
-1.7616836 -3.3769643 -1.8028806 3
-9.2657509 -17.76148 -1.4008495 2
-1.8642259 -3.5735271 -1.794522 6
-12.773016 -24.484543 -1.2878455 8
-1.9845643 -3.8042035 -1.7922167 7
-2.1024997 -4.0302734 -1.7750463 5
-2.2531166 -4.3189902 -1.7730324 8
-2.4073811 -4.6146989 -1.7587228 14
-2.5944083 -4.9732113 -1.750312 9
-2.7992342 -5.3658409 -1.7354128 10
-3.0408328 -5.8289604 -1.7210969 21
-3.3214529 -6.3668795 -1.7015274 13
-3.6708975 -7.0367289 -1.6869955 14
-4.0934558 -7.8467298 -1.6674798 8
-0.65395683 -1.2440212 -0.83349138 3
-4.6566997 -8.8584328 -1.6442262 9
-1.5041851 -2.8614092 -1.816323 3
-5.298017 -10.07841 -1.6002123 4
-1.5883092 -3.0214381 -1.814977 5
-6.1688609 -11.735015 -1.5503795 6
-1.672348 -3.1813052 -1.8052794 10
-7.4497623 -14.171672 -1.4937023 2
-1.7706016 -3.3682129 -1.8011693 3
-9.3363581 -17.76054 -1.4030817 2
-1.8805442 -3.5773563 -1.799403 8
-1.9982232 -3.8012171 -1.7937584 7
-2.1151509 -4.0236483 -1.7750463 6
-2.263176 -4.3052363 -1.7702962 9
-2.4253931 -4.613822 -1.7612836 10
-2.6117961 -4.9684157 -1.7515035 9
-2.816972 -5.3587217 -1.7359641 10
-3.062731 -5.8262286 -1.7231228 19
-3.3432496 -6.359859 -1.7024496 13
-3.692986 -7.0251617 -1.6869955 14
-4.119916 -7.8373103 -1.6682204 8
-0.65662354 -1.2406697 -0.83247119 4
-4.6804957 -8.8436499 -1.6439021 8
-1.5211416 -2.8741496 -1.8270994 4
-5.3270669 -10.065326 -1.6004907 4
-1.5942622 -3.0123086 -1.8121603 3
-6.2025366 -11.719499 -1.5506119 6
-1.6837333 -3.1813614 -1.8079726 5
-7.4883766 -14.149054 -1.4935164 2
-1.7808462 -3.3648531 -1.802025 3
-9.3840513 -17.730871 -1.4028027 2
-1.892236 -3.5753207 -1.8010298 7
-2.0062406 -3.7907288 -1.7914459 7
-2.1255074 -4.0160794 -1.7743189 7
-22.813414 -43.105232 0 14
-2.277827 -4.3038831 -1.7723484 8
-2.4391541 -4.6087055 -1.7619239 14
-2.6229811 -4.9560409 -1.7497163 8
-2.8328247 -5.3525338 -1.7365153 11
-3.0753689 -5.810813 -1.7210969 19
-3.3628173 -6.3539381 -1.7033718 14
-3.7116745 -7.0130925 -1.6865796 15
-4.1436248 -7.8292489 -1.6689609 8
-0.66192019 -1.241752 -0.83451152 4
-4.7104282 -8.8366899 -1.6451989 8
-1.5345839 -2.8788557 -1.8329775 4
-5.3634291 -10.06171 -1.602439 4
-1.6081769 -3.0169151 -1.8177938 3
-6.2410192 -11.708055 -1.5515411 7
-1.6889617 -3.1684661 -1.803484 3
-7.5368819 -14.139073 -1.494817 2
-1.7882711 -3.3547688 -1.7994579 3
-9.4450655 -17.718796 -1.4040583 2
-1.8976791 -3.5600166 -1.796149 7
-2.0174789 -3.7847595 -1.7914459 8
-2.1382902 -4.0113993 -1.7750463 6
-2.2905869 -4.2971058 -1.7723484 10
-2.4537091 -4.6031203 -1.7625642 12
-2.6376743 -4.9482365 -1.7497163 8
-2.8505023 -5.3474984 -1.7376179 11
-3.0971467 -5.8101997 -1.7236294 21
-3.3798242 -6.3404975 -1.7024496 14
-3.7379875 -7.0124068 -1.6890746 18
-4.1714587 -7.825592 -1.6708125 8
-0.65541083 -1.2218239 -0.82226932 4
-4.7363448 -8.829545 -1.6461717 8
-1.5355216 -2.862536 -1.8251401 4
-5.3860073 -10.040653 -1.6013258 4
-1.6160697 -3.0126946 -1.8177938 5
-6.2791615 -11.705681 -1.5533994 6
-1.6989406 -3.1671834 -1.8052794 5
-7.5785785 -14.128068 -1.4957459 2
-1.8047383 -3.3644125 -1.8071589 3
-9.4923639 -17.695766 -1.4041978 2
-1.9121747 -3.5646968 -1.8010298 7
-2.0299976 -3.7843435 -1.7937584 7
-2.1496654 -4.0074291 -1.7757739 7
-2.3009405 -4.2894382 -1.7716644 9
-2.4648559 -4.5950108 -1.7619239 16
-2.6533272 -4.9463611 -1.7515035 9
-2.865401 -5.3417115 -1.7381692 11
-3.1114328 -5.8003664 -1.7231228 18
-3.3973317 -6.3333426 -1.7029107 13
-3.7554085 -7.0008731 -1.6886587 17
-4.1910028 -7.8129125 -1.6704422 8
-0.66169983 -1.224299 -0.8253299 3
-4.7640605 -8.8146219 -1.6461717 8
-1.5503103 -2.8684354 -1.8319979 4
-5.4231744 -10.034137 -1.6029958 4
-1.6196489 -2.9967279 -1.8112212 3
-6.3206277 -11.694634 -1.554561 6
-1.7080325 -3.1602583 -1.8043817 5
-7.6229258 -14.104189 -1.4957459 2
-1.8161585 -3.3603165 -1.8080146 3
