# .PCD v0.7 - Point Cloud Data file format
VERSION 0.7
FIELDS x y z intensity
SIZE 4 4 4 4
TYPE F F F F
COUNT 1 1 1 1
WIDTH 1386
HEIGHT 1
VIEWPOINT 0 0 0 1 0 0 0
POINTS 1386
DATA ascii
-2.2466416 7.7229276 -0.75038105 0
-0.51756656 1.7791575 -0.87705392 11
-6.7805686 23.308498 -1.697454 3
-0.56190032 1.9315568 -0.89563411 3
-1.3407924 4.6090317 -2.0049701 8
-13.961993 47.994957 -1.1604933 15
-1.4336617 4.9282742 -2.0042019 8
-1.5517868 5.3343344 -2.0220232 9
-11.009193 37.844578 0.91506237 10
-1.6782682 5.7691197 -2.0301819 16
-11.415391 39.240902 1.9058212 14
-1.8222606 6.2640996 -2.035676 8
-15.628132 53.722382 3.9123616 27
-1.8784657 6.4573069 -1.9283589 5
-15.496209 53.26889 5.1757526 28
-1.8369583 6.3146234 -1.7216034 20
-15.702861 53.979263 6.5741296 21
-1.8362859 6.3123126 -1.5576583 24
-1.856819 6.3828959 -1.4129678 28
-1.8984193 6.5258985 -1.2805119 2
-0.22924159 0.79683536 -0.49172929 5
-1.986665 6.9055748 -1.1805615 3
-0.25742584 0.89480281 -0.52314806 6
-0.35689455 1.2405523 -0.68636745 6
-2.3456743 8.1534777 -0.99215931 4
-0.47485095 1.6505646 -0.86269194 14
-2.2270207 7.7410421 -0.75149572 0
-0.51078606 1.7754735 -0.87448692 11
-6.7246199 23.374531 -1.7008023 3
-0.55768228 1.9384831 -0.89807451 3
-1.3260907 4.6094427 -2.0034285 10
-13.812895 48.013115 -1.1599362 31
-1.4205782 4.9378777 -2.0063844 10
-13.821593 48.04335 0 16
-1.5359527 5.3389153 -2.0220232 9
-10.872535 37.79253 0.91301984 10
-1.6600958 5.770432 -2.0289016 14
-1.8036666 6.2694788 -2.035676 8
-15.491834 53.849045 3.9182212 27
-1.857172 6.455462 -1.9261539 6
-15.34965 53.35482 5.1796541 28
-1.8037713 6.2698426 -1.7079278 26
-15.544829 54.033253 6.5750589 21
-1.8035595 6.2691064 -1.5456693 26
-1.8265142 6.3488965 -1.4042356 29
-1.8725275 6.5088367 -1.2760682 3
-0.22814837 0.80251563 -0.49478984 6
-1.9606433 6.896595 -1.1779677 2
-0.25604388 0.90063858 -0.52608711 6
-0.35202968 1.2382703 -0.68448955 6
-0.47015196 1.6537672 -0.86358964 15
-2.1994233 7.7365074 -0.75038105 0
-0.50619435 1.780547 -0.87619823 11
-6.672431 23.470387 -1.7062434 3
-0.54909146 1.9314383 -0.89400715 3
-8.6859016 30.552803 -1.4812598 42
-1.3126125 4.617136 -2.0049701 9
-11.240372 39.538193 -0.95433503 6
-1.4040395 4.9387321 -2.0049295 10
-1.5196865 5.3455219 -2.0227072 10
-10.77617 37.905354 0.91492307 10
-1.6424774 5.7774415 -2.0295417 14
-1.7839617 6.2751145 -2.035676 11
-13.66839 48.078789 3.4952178 23
-1.8410883 6.4760585 -1.930564 5
-15.181956 53.402782 5.1796541 28
-1.7729545 6.2363963 -1.6972913 27
-15.382607 54.108574 6.578311 21
-1.7748086 6.2429185 -1.5378302 26
-1.7969303 6.3207321 -1.3967507 29
-15.372134 54.071735 9.2356815 30
-1.8402462 6.4730959 -1.2679216 3
-0.22404328 0.79652572 -0.4907091 5
-1.9419112 6.9039435 -1.1782919 1
-0.25305572 0.89967161 -0.52510738 6
-0.34809226 1.2375485 -0.6835506 6
-0.46504802 1.6533532 -0.86269194 14
-2.1805062 7.7522039 -0.75130993 0
-0.50170964 1.7836939 -0.87705392 11
-6.6219893 23.542704 -1.7101498 3
-0.54814821 1.9487936 -0.90132838 4
-8.6178589 30.638481 -1.4842412 14
-1.2982149 4.6154542 -2.0026577 10
-11.042753 39.259541 -0.94686115 13
-1.3902426 4.9426336 -2.0049295 11
-11.761099 41.813427 0 9
-1.5032264 5.3443174 -2.0206549 9
-10.623175 37.767841 0.91088444 10
-1.6247983 5.7765336 -2.027621 14
-11.329096 40.277554 1.9511935 16
-1.7659143 6.2782335 -2.0350802 11
-13.539478 48.135975 3.496613 23
-1.8203938 6.471921 -1.9278077 6
-13.529491 48.100471 4.6616888 23
-1.7455784 6.205935 -1.6876676 28
-15.214235 54.090126 6.5708776 21
-1.7468293 6.210382 -1.5286078 28
-1.771327 6.2974772 -1.3905134 20
-15.218941 54.106853 9.2343845 30
-1.8136479 6.447938 -1.2619966 3
-0.22195722 0.79710948 -0.4907091 6
-1.9164186 6.8823867 -1.1737525 1
-0.25303814 0.90872961 -0.53000581 6
-2.3004146 8.2614222 -1.2052391 31
-0.34390381 1.2350532 -0.68167269 6
-0.46023855 1.6528434 -0.86179423 14
-2.158067 7.7502127 -0.75056684 2
-0.49606842 1.7815183 -0.87534261 11
-6.5705009 23.596478 -1.7128005 3
-0.54255432 1.9484619 -0.9005149 4
-8.547801 30.697506 -1.4860114 28
-1.2876123 4.6241703 -2.0049701 7
-11.68117 41.950298 -1.0110158 9
-1.3777977 4.948051 -2.005657 8
-14.976786 53.785763 0 20
-1.4907422 5.3536658 -2.0227072 10
-10.543035 37.862942 0.91250914 10
-1.6096698 5.7807674 -2.027621 14
-11.593925 41.636982 2.0155718 18
-1.7484477 6.2791567 -2.0338888 6
-15.027538 53.968029 3.9173841 27
-1.8080856 6.4933329 -1.9327692 5
-14.892798 53.484142 5.1796541 28
-1.7184262 6.1713419 -1.677031 28
-1.7196018 6.1755633 -1.5189244 28
-1.7464378 6.2719393 -1.3838602 4
-15.071414 54.125599 9.2308178 30
-1.7930706 6.4394102 -1.2594045 2
-0.22050424 0.80108166 -0.49274948 6
-1.897561 6.8937507 -1.1747253 1
-0.24987803 0.90779531 -0.52902609 6
-2.2795715 8.2815781 -1.2071875 31
-0.33930051 1.232663 -0.67979485 6
-0.45628104 1.6576478 -0.86358964 14
-2.1392899 7.7719412 -0.75205308 3
-0.49078038 1.7829823 -0.87534261 11
-6.5168738 23.675499 -1.7171254 4
-0.53434628 1.9412552 -0.89644754 5
-1.2714376 4.6190739 -2.001116 10
-10.895481 39.582779 -0.95317447 6
-1.3640994 4.9557099 -2.0071118 13
-11.258814 40.902748 0 8
-1.4743524 5.3562536 -2.0220232 10
-10.470445 38.038639 0.91599077 10
-1.5930136 5.7873449 -2.0282612 14
-10.633681 38.631668 1.8685545 12
-1.7282892 6.2787948 -2.0321014 7
-14.869993 54.021996 3.9180815 27
-14.747254 53.576092 5.184299 28
-1.691379 6.1447015 -1.6684206 29
-1.6904249 6.1412354 -1.5092409 33
-1.7169182 6.2374845 -1.3751279 3
-1.7776078 6.4579663 -1.2619966 3
-0.21826634 0.80169427 -0.49274948 6
-1.8762288 6.8914061 -1.1734283 1
-0.24550986 0.90176004 -0.52510738 6
-2.2574768 8.2917328 -1.2077441 31
-0.33724862 1.2387173 -0.68261164 7
-2.2746692 8.3548813 -1.0126019 43
-0.45071128 1.6554667 -0.86179423 15
-2.120717 7.7894135 -0.75316781 3
-0.48579943 1.7843459 -0.87534261 11
-6.4659328 23.749434 -1.7211713 4
-0.52892321 1.9427398 -0.89644754 6
-1.2614427 4.6332908 -2.0057411 10
-11.467725 42.121059 -1.0135225 18
-1.3478081 4.9505119 -2.0034745 8
-1.4584017 5.3567228 -2.0206549 8
-10.400948 38.202778 0.9192403 10
-1.5783393 5.7972555 -2.0301819 15
-10.216117 37.523891 1.813586 11
-1.7137581 6.2946496 -2.035676 11
-14.718554 54.061386 3.917942 55
-1.6711648 6.1382036 -1.824168 4
-14.602293 53.634357 5.1859708 28
-1.6655726 6.1176643 -1.6598099 32
-14.775696 54.271271 6.5776143 42
-1.665089 6.1158876 -1.501863 36
-1.6922985 6.2158284 -1.3693064 5
-14.742834 54.15057 9.2204418 30
-1.7554363 6.4477344 -1.2590343 2
-0.2148533 0.79905361 -0.4907091 6
-1.8525198 6.8896427 -1.1721313 1
-0.2444867 0.90926212 -0.52902609 6
-2.2319307 8.3006964 -1.2080225 32
-0.33335543 1.2397708 -0.68261164 7
-2.2494421 8.3658228 -1.0130664 49
-0.44504419 1.6551486 -0.86089653 15
-2.0920987 7.780653 -0.75168151 2
-0.48019135 1.7858633 -0.87534261 11
-6.4021697 23.810089 -1.7241009 4
-0.52281731 1.9443918 -0.89644754 6
-1.2459221 4.633666 -2.0041993 9
-11.216448 41.714706 -1.002892 18
-1.3317653 4.9529223 -2.0027471 8
-14.372804 53.453403 0 20
-1.4410778 5.3594632 -2.0199709 9
-10.234152 38.061485 0.91506237 10
-1.557659 5.7930365 -2.0269809 12
-10.511633 39.093456 1.88784 13
-1.6914957 6.2907839 -2.0326972 9
-14.529992 54.037998 3.9129195 27
-14.434758 53.683815 5.1863422 28
-1.6438333 6.1135244 -1.6572775 52
-14.557671 54.140934 6.5562425 21
-1.6413193 6.1041741 -1.497713 39
-14.567518 54.177559 9.2171993 30
-1.7280267 6.4266453 -1.25385 1
-0.21557377 0.81132543 -0.49785042 6
-1.8280153 6.8798504 -1.1695374 1
-0.24044453 0.90492809 -0.52608711 6
-2.2093265 8.3149385 -1.2091359 32
-0.32922202 1.2390476 -0.68167269 7
-2.2261405 8.3782196 -1.0137633 52
-0.44104919 1.6599163 -0.86269194 14
-2.0659359 7.7752786 -0.75056684 1
-0.4748905 1.7872802 -0.87534261 11
-6.3432794 23.873329 -1.7273098 4
-0.5207994 1.9600612 -0.90295535 7
-1.2331161 4.6409097 -2.0057411 7
-11.175294 42.058922 -1.0103658 9
-1.3175422 4.9586525 -2.0034745 8
-14.23828 53.586662 0 20
-1.4251697 5.3637156 -2.0199709 10
-10.000515 37.637566 0.90415329 10
-1.5409505 5.7994637 -2.027621 16
-10.382769 39.076202 1.8855108 13
-1.6733134 6.2976198 -2.033293 10
-14.376767 54.107868 3.9148729 27
-1.6242574 6.1129947 -1.8136938 25
-14.271832 53.712933 5.1850419 28
-1.6281712 6.1277242 -1.6598099 16
-14.383704 54.133972 6.5502024 21
-1.6237004 6.110898 -1.4981741 56
-1.6507803 6.2128153 -1.3663956 27
-14.397584 54.186211 9.2113638 29
-1.7074368 6.4260454 -1.2527391 1
-0.21229194 0.80863374 -0.49581003 6
-1.8075943 6.8852439 -1.1695374 1
-0.2377585 0.9056375 -0.52608711 6
-2.1861546 8.3272047 -1.209971 32
-0.32419902 1.234895 -0.6788559 6
-2.2032897 8.3924732 -1.0146925 46
-0.43476072 1.6560317 -0.85999882 14
-2.0428569 7.7813745 -0.75056684 1
-0.4691264 1.7869328 -0.87448692 11
-2.1627455 8.2380371 -0.59558076 0
-0.51405358 1.9580634 -0.90132838 7
-9.4794493 36.107834 -1.7409159 51
-1.2169977 4.635623 -2.0018868 7
-10.413777 39.666752 -0.95215321 13
-1.3023508 4.9607382 -2.0027471 11
-11.130626 42.397274 0 20
-1.4106807 5.373374 -2.0220232 8
-9.9380465 37.854664 0.90865618 10
-1.522293 5.7985125 -2.0257003 13
-10.292654 39.205387 1.8902624 13
-1.6546206 6.302557 -2.033293 9
-14.219709 54.163792 3.9158494 27
-1.5983018 6.0880346 -1.8048733 27
-14.123018 53.79549 5.1889434 28
-14.234624 54.220604 6.5555453 21
-1.6025968 6.1043949 -1.4954073 56
-14.247272 54.268776 9.2181721 30
-1.6883628 6.4310832 -1.2527391 1
-0.20771897 0.79916054 -0.48968893 5
-1.7932475 6.8991904 -1.1711586 1
-0.23335175 0.89777797 -0.52118868 6
-2.167794 8.340189 -1.2110844 32
-0.32295758 1.24252 -0.68261164 7
-2.396157 9.2187738 -1.1138852 37
-0.4311626 1.6588188 -0.86089653 15
-2.0248394 7.7901974 -0.75093842 1
-0.46430397 1.7863243 -0.8736313 11
-0.50834835 1.9557769 -0.89970148 7
-9.3811407 36.092216 -1.7390525 25
-1.2056671 4.6385832 -2.0018868 11
-14.063089 54.105152 -1.2979012 20
-1.2892882 4.9602995 -2.001292 8
-10.840337 41.706203 0 9
-1.3970741 5.3749857 -2.0213389 9
-1.5100266 5.8095503 -2.0282612 14
-1.6387354 6.3047333 -2.0326972 10
-1.5824538 6.0882006 -1.8037709 34
-14.030103 53.978241 5.203249 28
-1.6047277 6.1738954 -1.6699401 69
-14.103095 54.259068 6.5560102 21
-1.5852283 6.098875 -1.4931017 58
-14.075464 54.152763 7.8635588 24
-1.606807 6.1818948 -1.3576634 38
-1.6721493 6.4332871 -1.2523688 1
-0.20734487 0.80814052 -0.49478984 6
-1.768131 6.8914084 -1.1688889 1
-0.23443009 0.91370696 -0.53000581 6
-2.1410894 8.3450394 -1.210806 31
-0.31905249 1.2435284 -0.68261164 6
-2.369652 9.235877 -1.1150467 39
-0.42594913 1.6601652 -0.86089653 14
-2.0028303 7.8061643 -0.75186729 1
-0.46003756 1.793027 -0.87619823 11
-0.50356382 1.9626735 -0.90214187 7
-9.2518196 36.059586 -1.7360712 50
-1.1910887 4.6423478 -2.0018868 8
-13.914412 54.232346 -1.2998973 20
-1.2746246 4.9679346 -2.0027471 8
-10.130206 39.483154 0 21
-1.3792471 5.3757076 -2.0199709 10
-1.4894135 5.8050885 -2.0250602 13
-9.9007483 38.588825 1.8578403 12
-1.6198694 6.313549 -2.0338888 10
-13.644275 53.179474 3.8391173 81
-1.5604527 6.0819688 -1.8004632 38
-13.633795 53.138626 5.1181598 55
-13.935035 54.312729 6.5571718 63
-1.565093 6.1000547 -1.4921795 49
-13.646862 53.189556 7.7174268 48
-1.6150904 6.2949224 -1.3813653 56
-1.650465 6.4327974 -1.2512579 1
-0.20339587 0.80204654 -0.4907091 5
-1.7469392 6.8886671 -1.1675919 1
-0.22973458 0.90590739 -0.52510738 6
-2.1172907 8.3490658 -1.2105277 29
-0.31774908 1.2529731 -0.68730634 6
-2.3443396 9.2443838 -1.1152791 39
-0.42219007 1.6648129 -0.86269194 15
-1.9790654 7.8040061 -0.75112414 1
-0.45280686 1.7855434 -0.87191993 11
-2.0892417 8.2384615 -0.59432518 26
-0.49673367 1.9587591 -0.89970148 7
-9.1456842 36.06398 -1.7350464 50
-1.1763057 4.6385002 -1.9988034 8
-13.75898 54.255486 -1.299526 20
-1.2612045 4.9732804 -2.0034745 9
-13.752855 54.231335 0 20
-1.3642299 5.3795381 -2.0199709 8
-9.4465809 37.2505 0.89222294 9
-1.4755256 5.8184085 -2.0282612 14
-1.6003551 6.3106456 -2.0315058 9
-10.40305 41.022121 2.9593487 25
-1.5415722 6.0788484 -1.7982581 38
-13.463324 53.08963 5.1097994 27
-1.5623559 6.1608043 -1.663862 3
-13.526952 53.340538 6.4352136 40
-1.5466173 6.0987425 -1.4907962 34
-13.47442 53.133389 7.7037878 24
-13.54181 53.399128 9.0508642 29
-1.633461 6.4411917 -1.2519984 1
-0.20185108 0.8059839 -0.49274948 5
-1.7269719 6.8957348 -1.1679162 1
-0.22619851 0.9032023 -0.52314806 6
-2.0925093 8.3553114 -1.2105277 28
-0.31274304 1.2487713 -0.68448955 6
-2.3193135 9.2609339 -1.1164405 40
-0.4176828 1.667792 -0.86358964 15
-1.9549342 7.8059802 -0.75075263 1
-0.44794622 1.7886328 -0.87277561 11
-2.0667274 8.2523651 -0.5948832 26
-0.49047586 1.9584519 -0.89888799 7
-9.0337868 36.071575 -1.7341148 50
-1.1656761 4.6545014 -2.0041993 10
-13.61057 54.3465 -1.300733 20
-1.2473481 4.9806147 -2.0049295 10
-10.076576 40.235397 0 7
-1.348719 5.385385 -2.0206549 9
-9.3977051 37.524689 0.8981185 10
-1.457335 5.8190846 -2.0269809 14
-1.5825517 6.3190703 -2.0326972 10
-13.346482 53.292011 3.8416286 27
-1.522128 6.0778008 -1.7966043 41
-13.330417 53.227859 5.1192746 55
-13.646115 54.488434 6.5687866 21
-1.5289879 6.1051922 -1.4912573 23
-13.34991 53.305698 7.7229939 48
-1.5773818 6.2984271 -1.3801178 83
-1.6143425 6.4460096 -1.2519984 1
-0.20042607 0.80988419 -0.49478984 6
-1.7081827 6.9024463 -1.1682404 1
-0.22493201 0.90890813 -0.52608711 6
-2.0729749 8.376503 -1.2127544 16
-0.31010303 1.2530682 -0.68636745 5
-2.2948749 9.273159 -1.1171374 39
-0.4125945 1.667217 -0.86269194 14
-1.934085 7.8152752 -0.75112414 0
-0.44338393 1.7916315 -0.8736313 11
-2.0446329 8.2619781 -0.59516221 28
-0.4850049 1.959814 -0.89888799 7
-8.9253416 36.065632 -1.7326241 50
-1.1522304 4.6559472 -2.0034285 7
-13.458272 54.382355 -1.3006865 20
-1.2307495 4.973228 -2.0005646 8
-13.450368 54.350414 0 20
-1.3314176 5.3800087 -2.0172348 9
-1.4410794 5.8231316 -2.0269809 14
-1.5635234 6.3179049 -2.03091 10
-13.200008 53.338757 3.8423262 27
-1.5028405 6.0726967 -1.7938479 45
-13.18316 53.270676 5.1198316 55
-1.5124006 6.1113272 -1.4917184 14
-13.199574 53.337002 7.7221589 48
-1.5958635 6.448585 -1.2516282 1
-0.19802222 0.81047529 -0.49478984 6
-1.6858217 6.8998156 -1.1669434 1
-0.22223425 0.90957153 -0.52608711 6
-2.2511842 9.2137594 -1.3329999 24
-0.30638373 1.2539828 -0.68636745 6
-2.2706511 9.2934351 -1.1187636 39
-0.40679756 1.6649616 -0.86089653 14
-1.9208137 7.8616028 -0.75502563 0
-0.43763706 1.791183 -0.87277561 11
-2.0220044 8.2757607 -0.59572029 35
-0.47875425 1.9594694 -0.89807451 7
-8.8016977 36.024033 -1.7293632 50
-1.1370969 4.6539669 -2.001116 7
-13.323908 54.532761 -1.3033326 61
-1.2181991 4.9859066 -2.0042019 9
-11.058463 45.260632 0 12
-1.3154489 5.3839355 -2.0172348 11
-1.4251447 5.8329039 -2.0289016 17
-9.4190779 38.550877 1.8506664 11
-1.5456772 6.3262258 -2.0321014 10
-13.044059 53.387379 3.8430235 27
-1.4843595 6.0752611 -1.7932967 45
-13.032134 53.338573 5.1226187 55
-1.4786847 6.0520349 -1.6309394 55
-1.4924136 6.1082258 -1.4898739 17
-13.049253 53.408638 7.7268906 48
-1.5308645 6.2655993 -1.3709697 7
-1.5771896 6.4552007 -1.2519984 1
-0.19535455 0.80935287 -0.49376968 6
-1.6665472 6.9044962 -1.1669434 1
-0.21928427 0.90849358 -0.52510738 6
-2.2273045 9.2277107 -1.3341134 26
-0.30536678 1.265133 -0.6920011 7
-2.2498171 9.320981 -1.1213188 40
-0.40256587 1.6678283 -0.86179423 14
-1.897918 7.8630643 -0.75465405 0
-0.43305761 1.7941554 -0.8736313 11
-2.0007586 8.2891331 -0.59627831 40
-0.47242314 1.9572465 -0.89644754 7
-8.6902838 36.003803 -1.7272204 50
-1.1245291 4.6589184 -2.0018868 7
-1.2029598 4.9838562 -2.0020196 12
-10.949861 45.365215 0 12
-1.301291 5.391242 -2.0186028 9
-1.4079615 5.8331771 -2.027621 17
-9.3545122 38.755699 1.8592378 12
-1.5275571 6.3286614 -2.0315058 8
-12.893986 53.419716 3.8427446 54
-1.4660351 6.0737762 -1.7916428 46
-12.879396 53.359272 5.1211324 55
-12.921417 53.533363 6.4400916 20
-1.4744372 6.1085858 -1.4889517 16
-12.902381 53.454494 7.7282825 48
-12.923496 53.541981 9.049243 29
-1.5596182 6.4614906 -1.2523688 2
-0.19215497 0.80658215 -0.49172929 6
-1.6423949 6.894052 -1.1643496 1
-0.21537551 0.90405178 -0.5221684 6
-2.2022104 9.2439117 -1.3355051 26
-0.29997477 1.2591622 -0.6882453 7
-2.2221513 9.3276148 -1.1213188 35
-0.39761555 1.6690154 -0.86179423 14
-1.8671956 7.8376665 -0.75168151 0
-0.42773232 1.7954323 -0.8736313 11
-1.9780049 8.3027954 -0.59683639 38
-0.4666138 1.9586396 -0.89644754 7
-8.5806427 36.017769 -1.7266613 50
-1.1107008 4.6622343 -2.0018868 8
-1.1860083 4.9783421 -1.9983821 8
-1.2852892 5.3950791 -2.0186028 10
-1.3888915 5.8299561 -2.0250602 16
-9.2709646 38.915436 1.8655732 12
-1.5101002 6.3387375 -2.033293 9
-12.753 53.53149 3.8480461 27
-1.4466709 6.0724888 -1.789989 54
-12.722866 53.405003 5.1218753 27
-1.4420096 6.0529227 -1.6289133 111
-12.784161 53.662289 6.4510098 20
-1.4549532 6.1072545 -1.4875684 16
-12.746934 53.506027 7.7302308 48
-1.4847779 6.2324452 -1.3618215 29
-1.536796 6.4507942 -1.2494063 3
-0.19015464 0.80882335 -0.49274948 6
-1.6269009 6.9200277 -1.1679162 1
-0.21388933 0.90977883 -0.52510738 6
-2.1765866 9.2581177 -1.3366184 26
-0.29623744 1.2600467 -0.6882453 6
-2.1912837 9.320631 -1.1196928 33
-0.39225274 1.6684481 -0.86089653 15
-1.8480343 7.8606186 -0.7533536 0
-0.42240331 1.7966936 -0.8736313 11
-1.9547312 8.314455 -0.59725493 38
-0.46080035 1.9600155 -0.89644754 7
-8.4682512 36.01973 -1.7255434 49
-1.0977076 4.6691022 -2.0034285 9
-1.1737903 4.9927206 -2.0027471 8
-8.9768286 38.182964 0 6
-1.269276 5.398869 -2.0186028 8
-1.3715875 5.8340511 -2.0250602 13
-9.9185667 42.188652 2.0210686 19
-1.4886646 6.3320389 -2.0297184 9
-12.591373 53.557442 3.847209 27
-1.428207 6.074883 -1.7894378 59
-12.564354 53.442516 5.1218753 27
-1.4249295 6.0609417 -1.6299263 107
-12.622612 53.690315 6.4498482 20
-1.4341539 6.1001778 -1.4848017 18
-12.588122 53.543613 7.7302308 48
-1.4667271 6.238728 -1.3622375 3
-1.5113521 6.4285402 -1.244222 2
-0.18828426 0.81102687 -0.49376968 6
-1.607124 6.9226213 -1.1675919 1
-0.21095361 0.90867412 -0.52412772 6
-2.1525161 9.2718763 -1.3377318 24
-0.29032153 1.2505481 -0.68261164 7
-2.1679423 9.3383236 -1.1210866 35
-0.38718787 1.667796 -0.85999882 15
-1.8251754 7.8618693 -0.75298202 0
-0.41779315 1.7996271 -0.87448692 11
-1.9319565 8.3218241 -0.59739447 40
-0.4544988 1.9577352 -0.89482063 7
-8.3572416 35.998478 -1.7234005 49
-1.0859168 4.6775427 -2.0057411 10
-12.713404 54.762474 -1.3052359 20
-1.1590009 4.9923491 -2.001292 8
-8.8308182 38.038391 0 6
-1.2533445 5.3987308 -2.0172348 7
-1.3561474 5.8415504 -2.0263405 14
-8.8085814 37.942608 1.8164742 11
-1.4731351 6.34547 -2.0326972 10
-12.446276 53.611828 3.8486042 27
-1.4125415 6.0844655 -1.7910916 61
-12.415066 53.477394 5.1218753 27
-1.4062485 6.0573583 -1.6279004 104
-12.473979 53.731159 6.4505453 20
-1.4157932 6.0984716 -1.4834182 39
-12.442583 53.595921 7.7327356 48
-1.4417788 6.2104039 -1.3551683 3
-1.4951721 6.4403934 -1.2457033 1
-0.18458417 0.8065837 -0.4907091 6
-1.5809654 6.9083982 -1.1643496 1
-0.20848686 0.91103208 -0.52510738 6
-2.1229353 9.2766619 -1.3374535 26
-0.288755 1.2617824 -0.6882453 7
-2.140367 9.3528347 -1.1220157 34
-0.38234511 1.6707463 -0.86089653 15
-1.8000234 7.8656235 -0.75279623 0
-0.41213739 1.8009307 -0.87448692 11
-1.9066933 8.3317423 -0.59767348 42
-0.4499765 1.9662775 -0.89807451 8
-8.2347488 35.983658 -1.721444 24
-1.0679229 4.6665392 -1.9995743 8
-9.4011803 41.080654 -0.97842783 15
-1.1449736 5.0032301 -2.0042019 9
-9.0177851 39.405319 0 6
-1.2376355 5.4081378 -2.0192869 9
-8.8810978 38.808033 0.92430025 10
-1.3373663 5.8439345 -2.0257003 16
-8.7093925 38.057728 1.8206667 11
-1.4523412 6.3463445 -2.0315058 10
-12.278233 53.652611 3.8487437 27
-1.3929908 6.0869989 -1.7905402 61
-12.209241 53.351131 5.1060839 27
-1.3876435 6.0636325 -1.6284068 104
-12.312207 53.801067 6.4542623 20
-1.3974955 6.1066837 -1.4843405 68
-12.286074 53.686874 7.7402511 48
-1.4222612 6.2149029 -1.3551683 4
-1.4762471 6.4508066 -1.2468143 1
-0.18323062 0.81041992 -0.49274948 6
-1.56505 6.9221382 -1.1659707 1
-0.20571655 0.90987408 -0.52412772 6
-2.0733097 9.170145 -1.3213094 21
-0.28584009 1.2642565 -0.68918425 9
-2.1167502 9.3622808 -1.1224804 33
-0.37718153 1.6682552 -0.85910112 15
-1.7807426 7.8761358 -0.7533536 1
-0.40702251 1.8002403 -0.8736313 12
-1.8870744 8.3464355 -0.59837103 42
-0.44482726 1.9674488 -0.89807451 8
-8.1391935 35.999249 -1.7211645 49
-1.0565163 4.6729188 -2.001116 9
-1.1298171 4.9971247 -2.0005646 12
-8.9172382 39.440498 0 6
-1.2230583 5.4095263 -2.0186028 10
-1.322898 5.8511124 -2.0269809 15
-1.4348795 6.3464007 -2.0303142 11
-12.139929 53.694298 3.8494413 81
-1.3753545 6.0831242 -1.7883352 61
-12.099828 53.516933 5.1189027 27
-1.3700575 6.0596957 -1.6263808 104
-12.165619 53.807926 6.451242 61
-1.3806452 6.1065249 -1.4834182 73
-12.145917 53.720787 7.7405295 48
-1.4025344 6.2033401 -1.3518418 5
-12.166566 53.812115 9.0641575 87
-1.4567533 6.4431472 -1.2445924 1
-12.154202 53.757431 10.38407 28
-0.18157402 0.81431806 -0.49478984 6
-1.5419277 6.9151936 -1.1640253 1
-0.203016 0.91048044 -0.52412772 6
-1.8935081 8.4919519 -1.2227749 16
-0.28477794 1.277164 -0.69575685 9
-2.0893948 9.3704586 -1.1227126 34
-0.37223008 1.669367 -0.85910112 15
-1.7595327 7.8911028 -0.75428247 1
-0.40128589 1.7996756 -0.87277561 11
-1.8627359 8.3539448 -0.59851056 40
-0.43779486 1.9634101 -0.89563411 8
-8.024085 35.986191 -1.7193943 49
-1.0446551 4.6850395 -2.0049701 8
-10.306461 46.222126 -1.0994953 13
-1.1153908 5.0022731 -2.001292 9
-8.5342302 38.274075 0 6
-1.2078207 5.4168 -2.0199709 10
-8.5732698 38.449158 0.91459817 10
-1.3071811 5.8624091 -2.0295417 17
-1.4177051 6.3580837 -2.0326972 9
-11.983601 53.743713 3.8504179 27
-1.356881 6.0853019 -1.7877839 61
-11.926251 53.486515 5.112586 27
-1.352493 6.0656223 -1.6268873 104
-12.014993 53.884502 6.4561205 20
-1.365909 6.1257901 -1.4871073 101
-11.988626 53.766251 7.7419214 48
-1.3849741 6.2112927 -1.3526734 7
-12.009855 53.861462 9.0664272 29
-1.4380574 6.4493594 -1.2449627 1
-0.17878769 0.81317312 -0.49376968 6
-1.523522 6.9293756 -1.1656464 1
-0.20031366 0.91107881 -0.52412772 6
-1.8597978 8.4588461 -1.2172079 16
-0.27757445 1.2624811 -0.68730634 7
-2.0628626 9.3824377 -1.1234096 33
-0.36842668 1.6757005 -0.86179423 15
-1.741243 7.9196272 -0.75651193 0
-0.39672074 1.8043895 -0.87448692 11
-1.8387979 8.3633327 -0.59878957 38
-0.43275207 1.9682693 -0.89726102 8
-7.9125576 35.988377 -1.7183695 49
-1.0319386 4.6935258 -2.0072827 10
-1.1005439 5.0055609 -2.001292 9
-8.2643042 37.588211 0 5
-1.1913399 5.4185243 -2.0192869 10
-1.28734 5.8551583 -2.0257003 14
-1.3984241 6.3603978 -2.0321014 10
-11.83137 53.81216 3.8527896 27
-1.3384068 6.0874233 -1.7872326 57
-11.744411 53.416641 5.1025538 27
-1.336152 6.0771675 -1.6289133 106
-11.868285 53.980057 6.4633217 20
-11.834149 53.824799 7.7452612 48
-1.3656986 6.2115536 -1.3518418 8
-1.4227139 6.4708738 -1.2482954 1
-0.17564537 0.8103376 -0.49172929 6
-1.5012833 6.9261508 -1.1643496 1
-0.19834828 0.91507721 -0.52608711 6
-1.8200076 8.3965807 -1.2074658 10
-0.27532372 1.2702023 -0.69106215 7
-2.037961 9.4021063 -1.1250356 30
-0.36156017 1.6680532 -0.85730571 15
-1.7126753 7.9014049 -0.75428247 0
-0.38983351 1.7984918 -0.87106431 11
-1.8152432 8.3746014 -0.59920812 38
-0.42613614 1.9659735 -0.89563411 8
-7.7841592 35.912117 -1.713618 48
-1.0168352 4.6911559 -2.0049701 10
-8.0366077 37.076782 -0.88080323 15
-1.0864766 5.0124454 -2.0027471 11
-8.0108109 36.957771 0 5
-1.1740632 5.4165249 -2.0172348 9
-1.2703632 5.8608036 -2.0263405 13
-1.3799508 6.3663845 -2.0326972 10
-11.672923 53.852875 3.8532081 27
-1.3203392 6.0913677 -1.7872326 53
-11.602742 53.529099 5.1099854 27
-1.3185246 6.0829959 -1.6294198 104
-11.71312 54.03833 6.4661093 20
-1.3307707 6.1394935 -1.4884906 109
-11.68069 53.888706 7.7494364 48
-1.3480914 6.2194018 -1.3526734 7
-1.3997611 6.4577794 -1.2449627 1
-11.691044 53.936478 10.398142 27
-0.17338179 0.81082493 -0.49172929 6
-1.4835867 6.9380355 -1.1656464 1
-0.19688594 0.92074281 -0.52902609 6
-1.7944821 8.3919468 -1.2060741 11
-0.27472964 1.2847811 -0.69857371 9
-0.35839555 1.6760471 -0.86089653 15
-1.6947678 7.9256301 -0.75614035 0
-0.38556567 1.8031089 -0.87277561 11
-1.7939359 8.3893929 -0.59990567 38
-0.42064443 1.9671558 -0.89563411 8
-7.6805015 35.918087 -1.7128726 48
-1.0018016 4.6849537 -2.001116 7
-7.9255123 37.063885 -0.87996763 20
-1.0713062 5.0099945 -2.0005646 8
-1.1597188 5.4234581 -2.0186028 10
-1.254388 5.8661814 -2.0269809 14
-8.6292324 40.354855 1.9244546 14
-1.3605702 6.3627453 -2.0303142 11
-11.529584 53.91843 3.8555799 27
-1.3037258 6.096911 -1.7877839 45
-11.436143 53.481453 5.1023679 27
-1.3007234 6.08287 -1.6284068 104
-11.566741 54.092197 6.4686646 20
-1.3132139 6.1412826 -1.4880295 102
-11.532229 53.930801 7.7508283 48
-1.3307183 6.2231421 -1.3526734 6
-1.3829551 6.4674287 -1.2460736 1
-11.545311 53.991978 10.402585 27
-0.17203943 0.81638557 -0.49478984 6
-1.4654363 6.9539938 -1.1675919 1
-0.19379364 0.91961676 -0.52804643 6
-1.7679412 8.3894825 -1.2049607 14
-0.27200884 1.2907743 -0.7013905 9
-0.35342106 1.677103 -0.86089653 14
-1.6708339 7.9286752 -0.75595456 1
-0.38021407 1.804245 -0.87277561 11
-1.769859 8.3985825 -0.60018468 40
-0.41555944 1.9719708 -0.89726102 8
-7.5755448 35.948536 -1.7132454 48
-0.98751611 4.6861 -2.000345 8
-8.3552036 39.648285 -0.94073349 6
-1.0575891 5.01862 -2.0027471 7
-7.825449 37.134415 0 22
-1.1440095 5.4287143 -2.0192869 11
-1.2369772 5.8698773 -2.0269809 14
-8.6511736 41.052761 1.956504 16
-1.3420793 6.3686223 -2.03091 9
-11.363383 53.923119 3.853487 54
-1.283648 6.0913463 -1.7850275 45
-11.278643 53.520992 5.1029253 27
-1.2822704 6.0848093 -1.6279004 104
-11.398413 54.089348 6.464251 20
-1.2965919 6.1527691 -1.4898739 66
-11.381147 54.007416 7.7569518 48
-1.3126514 6.2289772 -1.3530893 4
-11.394266 54.069668 9.0784245 29
-1.3609228 6.4580412 -1.2434815 1
-0.16961642 0.81689245 -0.49478984 6
-1.4443958 6.9563789 -1.1672677 1
-0.19106424 0.92018771 -0.52804643 6
-1.7466652 8.4121437 -1.2074658 14
-0.26566479 1.2794727 -0.6948179 7
-0.34771675 1.6746445 -0.85910112 15
-1.6509453 7.9511456 -0.75762659 0
-0.37559411 1.8089051 -0.87448692 11
-1.7465546 8.4116106 -0.60074276 38
-0.40896377 1.9696172 -0.89563411 9
-7.4615393 35.935646 -1.7115684 48
-0.97398305 4.6908159 -2.001116 7
-8.2733002 39.845181 -0.94481862 13
-1.0430727 5.02356 -2.0034745 10
-7.7164545 37.163345 0 16
-1.127133 5.4284043 -2.0179188 9
-7.7265701 37.212067 0.88238156 19
-1.2199407 5.8753767 -2.027621 17
-8.4870892 40.874813 1.9468147 15
-1.3235655 6.3744459 -2.0315058 12
-11.225244 54.062084 3.8610208 27
-1.265569 6.0951281 -1.7850275 46
-11.125056 53.579571 5.1053405 27
-1.2649976 6.0923762 -1.6289133 104
-11.274223 54.297977 6.485158 20
-1.2771436 6.1508727 -1.4884906 53
-11.22166 54.044823 7.7575088 48
-1.2929708 6.2270985 -1.3518418 4
-1.3401572 6.4543533 -1.2420002 1
-11.239899 54.132668 10.416656 27
-0.16644128 0.81227803 -0.49172929 6
-1.4245944 6.9524031 -1.1659707 1
-0.18900456 0.9223929 -0.52902609 6
-1.7254314 8.4205685 -1.2080225 13
-0.26054183 1.2715141 -0.6901232 7
-1.768078 8.6286945 -1.0300244 39
-0.34404889 1.6790508 -0.86089653 15
-1.6337212 7.9729981 -0.75929868 0
-0.37013137 1.8063403 -0.87277561 11
-1.7261291 8.4239731 -0.60130078 38
-0.40270564 1.9653115 -0.89319366 8
-7.3578095 35.908085 -1.7093323 48
-0.96244007 4.6969657 -2.0026577 9
-11.29839 55.139175 -1.3067677 20
-1.0299175 5.0262733 -2.0034745 10
-9.5542297 46.627201 0 13
-1.1125404 5.4294953 -2.0172348 10
-7.6190886 37.183197 0.881221 28
-1.2041745 5.8766942 -2.0269809 14
-7.8422613 38.272339 1.8218778 11
-1.3064893 6.3760185 -2.03091 8
-11.086074 54.103012 3.8618579 27
-1.2499936 6.1003041 -1.7855788 45
-10.984747 53.608509 5.1053405 27
-1.2486551 6.0937715 -1.6284068 104
-11.139609 54.364281 6.489572 20
-1.260255 6.150382 -1.4875684 63
-11.073374 54.041035 7.7527766 48
-1.2770566 6.2323785 -1.3522576 6
-1.3264114 6.4732432 -1.2449627 1
-11.096563 54.154205 10.415175 27
-0.16490866 0.81785583 -0.49478984 6
-1.4050864 6.968452 -1.1679162 1
-0.18507192 0.91785443 -0.52608711 6
-1.6946628 8.4045916 -1.2049607 12
-0.25968736 1.2879058 -0.69857371 9
-1.7409614 8.6342068 -1.0300244 17
-0.33735928 1.6731155 -0.85730571 15
-1.6098461 7.9839473 -0.75985599 0
-0.36374015 1.8039502 -0.87106431 11
-1.7012333 8.4371767 -0.60185885 40
-0.39797401 1.9737312 -0.89644754 8
-7.2335129 35.874226 -1.7066305 48
-0.94840896 4.7035842 -2.0041993 8
-7.997828 39.664806 -0.93943369 12
-1.0141219 5.0294843 -2.0034745 9
-7.8015351 38.691303 0 6
-1.0969635 5.4403329 -2.0199709 8
-1.1849574 5.8767338 -2.0257003 14
-7.5071688 37.231407 1.7711952 31
-1.2868295 6.3819633 -2.0315058 10
-10.923937 54.176689 3.8646481 27
-1.2308228 6.1042008 -1.7855788 46
-10.822575 53.673988 5.1083131 27
-1.2291224 6.0957675 -1.6279004 104
-10.971513 54.41264 6.4911981 20
-1.2401575 6.1504955 -1.4866461 51
-10.914897 54.131859 7.760849 48
-1.255924 6.2286887 -1.3505944 7
-1.3087879 6.4908648 -1.2475548 1
-0.16295944 0.82000041 -0.49581003 6
-1.3856213 6.9723482 -1.1679162 1
-0.18148847 0.91323715 -0.52314806 6
-1.669642 8.4015207 -1.2038473 14
-0.25712246 1.2938221 -0.7013905 9
-1.6839315 8.473424 -1.0102788 8
-0.33407918 1.6810628 -0.86089653 15
-1.5871564 7.9864583 -0.75967026 0
-0.35940588 1.8085049 -0.87277561 11
-1.6792212 8.4497223 -0.60241693 40
-0.39032394 1.9640825 -0.89156669 9
-7.1301899 35.878613 -1.7058852 48
-0.93455094 4.7025943 -2.0026577 10
-10.974889 55.224861 -1.3072319 20
-0.99934673 5.0286422 -2.0020196 8
-7.646678 38.477543 0 12
-1.0810344 5.4396887 -2.0186028 10
-1.1678032 5.8763027 -2.0244198 15
-7.4078431 37.275742 1.7723131 31
-1.2682585 6.3817868 -2.0303142 8
-10.762493 54.156105 3.8610208 54
-1.2130224 6.1038427 -1.7844763 48
-10.692054 53.801659 5.1176023 27
-1.2117178 6.0972786 -1.6273938 104
-10.802097 54.355389 6.4807444 20
-1.2275293 6.1768403 -1.4921795 21
-10.766393 54.175724 7.7627974 48
-1.2377627 6.2283344 -1.3497627 6
-1.2864429 6.4732895 -1.2434815 1
-0.15920454 0.81372738 -0.49172929 6
-1.3675804 6.9899864 -1.1701859 1
-0.17944762 0.91719395 -0.52510738 5
-1.6454675 8.4103251 -1.204404 12
-0.25328249 1.2945793 -0.7013905 9
-1.6519175 8.4432917 -1.0060973 12
-0.32874677 1.6802927 -0.85999882 15
-1.5661296 8.0048122 -0.76097071 0
-0.35230288 1.8006929 -0.86849731 11
-1.6621877 8.4957857 -0.60534668 4
-0.38624877 1.9741974 -0.89563411 9
-7.0240884 35.901569 -1.7059783 48
-0.92059398 4.7053466 -2.0026577 8
-10.549924 53.922848 -1.2756653 19
-0.98442209 5.0315847 -2.0020196 11
-10.809674 55.250481 0 21
-1.0663332 5.4502497 -2.0213389 7
-7.3480911 37.557617 0.88850921 9
-1.1510904 5.883461 -2.0257003 14
-1.2500509 6.3892689 -2.0315058 9
-7.2999883 37.311752 2.6585588 32
-1.196014 6.1130753 -1.7861301 55
-1.1939931 6.1027455 -1.6279004 104
-10.630857 54.336514 6.4747047 41
-1.2084495 6.1766353 -1.4912573 9
-10.607123 54.215206 7.7639108 48
-1.2181506 6.2262197 -1.3485153 5
-10.556781 53.957893 9.0330305 29
-1.2676079 6.4790068 -1.2438518 1
-10.632586 54.345345 10.433321 27
-0.15646417 0.81250691 -0.4907091 6
-1.3438492 6.9785099 -1.1675919 1
-0.17804432 0.92457104 -0.52902609 6
-1.5617082 8.1098356 -1.1607037 7
-0.24910636 1.293591 -0.70045155 9
-1.6261072 8.4442549 -1.0056328 21
-0.32342184 1.6795057 -0.85910112 15
-1.5461376 8.0289783 -0.76282853 0
-0.34832591 1.8088307 -0.87191993 11
-1.6373502 8.5026388 -0.60548621 1
-0.37831655 1.96457 -0.89075327 9
-6.9096022 35.881054 -1.7040218 47
-0.90627992 4.7062449 -2.0018868 8
-10.657573 55.34399 -1.3085318 20
-0.97089785 5.041801 -2.0049295 9
-10.655907 55.335339 0 21
-1.0490912 5.4478531 -2.0192869 10
-7.3141317 37.981747 0.89802563 10
-1.1343453 5.8905716 -2.0269809 15
-1.2325321 6.4004488 -2.0338888 9
-7.1998138 37.388103 2.6624651 8
-1.1775074 6.1147094 -1.7855788 61
-7.1940961 37.35841 3.5494008 23
-1.1751488 6.1024618 -1.6268873 103
-8.9219904 46.331242 5.5176229 14
-10.454831 54.291168 7.7703128 48
-1.2000415 6.2317276 -1.3489311 4
-10.48695 54.457958 9.1114969 29
-1.2498654 6.490459 -1.245333 1
-10.471292 54.376652 10.433321 27
-0.15611805 0.82308131 -0.49683022 6
-1.3261952 6.9919305 -1.1692132 1
-0.17481188 0.92163843 -0.52706677 5
-1.4903369 7.8573141 -1.1239619 2
-0.24450576 1.2890767 -0.69763476 9
-1.6017797 8.4448595 -1.0051682 26
-0.31839746 1.6786464 -0.85820341 15
-1.5229682 8.0293522 -0.76245701 0
-0.34293646 1.8080204 -0.87106431 11
-1.615459 8.5169792 -0.60618377 1
-0.37453139 1.9745942 -0.89482063 9
-6.7996964 35.849178 -1.7015995 47
-0.89244628 4.7051311 -2.000345 10
-10.504472 55.381393 -1.3087175 20
-0.95507884 5.0353408 -2.001292 8
-8.4868689 44.74424 0 11
-1.034224 5.4526081 -2.0199709 8
-7.1715231 37.809509 0.89347631 9
-1.1171851 5.8899932 -2.0257003 13
-1.2142981 6.4019899 -2.033293 7
-1.1615021 6.1236401 -1.7872326 62
-7.0897436 37.378353 3.5494008 35
-1.1584636 6.1076202 -1.6273938 104
-10.230734 53.938198 6.4201136 20
-10.306502 54.337666 7.7728176 48
-1.1833638 6.2388988 -1.3497627 4
-1.230637 6.488131 -1.244222 1
-10.317573 54.396027 10.431469 27
-0.15192387 0.81336814 -0.4907091 5
-1.3084767 7.0053067 -1.1708343 1
-0.17255764 0.92383701 -0.52804643 6
-1.4356616 7.6862273 -1.0989108 0
-0.2415535 1.2932262 -0.6995126 9
-1.5789205 8.4532051 -1.0056328 13
-0.3140367 1.6812859 -0.85910112 15
-1.5052934 8.059021 -0.76487219 0
-0.33821809 1.810748 -0.87191993 11
-1.5924015 8.5253792 -0.60646278 1
-0.36767393 1.9684483 -0.89156669 9
-6.6947918 35.842495 -1.7003883 47
-0.87998134 4.7112331 -2.0018868 7
-10.355651 55.441959 -1.3094602 20
-0.94135588 5.0398197 -2.0020196 8
-6.9631586 37.279274 0 5
-1.0186484 5.4536276 -2.0192869 8
-1.1021245 5.9005404 -2.0282612 14
-7.1940308 38.515316 1.8271884 11
-1.1960652 6.4034791 -2.0326972 9
-1.1443973 6.1268597 -1.7872326 62
-8.4248161 45.104679 4.2808318 19
-1.1421139 6.1146355 -1.6284068 103
-6.9969993 37.460449 4.45647 30
-1.1512948 6.1637878 -1.4857239 71
-10.163087 54.411011 7.7792196 48
-1.1648593 6.2364097 -1.3485153 5
-1.2132356 6.4954062 -1.2449627 2
-10.172486 54.461334 10.438505 27
-0.15029946 0.81891733 -0.49376968 5
-1.2889563 7.0229707 -1.173104 1
-0.16933972 0.92265958 -0.52706677 6
-1.4007818 7.6322594 -1.0905604 0
-0.23653319 1.2887681 -0.6966958 7
-1.5588109 8.4932928 -1.0098141 8
-0.30843061 1.6805063 -0.85820341 15
-1.4792488 8.0597925 -0.76450062 0
-0.33252782 1.8118016 -0.87191993 11
-1.5656104 8.5303402 -0.60646278 1
-0.3618179 1.9713907 -0.89238018 9
-6.5792713 35.84763 -1.699643 47
-0.86484307 4.7121592 -2.001116 10
-10.212105 55.64138 -1.313406 20
-0.92619085 5.0464172 -2.0034745 10
-7.2139063 39.305485 0 6
-1.0015104 5.4568005 -2.0192869 7
-6.9307895 37.762901 0.89138734 9
-1.0832399 5.9021096 -2.027621 16
-7.4534779 40.610809 1.9254794 14
-1.1762868 6.4090829 -2.033293 11
-1.1251435 6.130425 -1.7872326 62
-9.914382 54.019218 5.123919 27
-1.1225493 6.1162906 -1.6279004 103
-6.8825068 37.499832 4.4585609 22
-1.1312224 6.1635461 -1.4848017 81
-9.9978209 54.473839 7.7836733 48
-1.1470271 6.2496591 -1.3505944 6
-1.192469 6.4972525 -1.2445924 1
-0.14648297 0.81086963 -0.48866874 5
-1.2679361 7.018774 -1.1718071 1
-0.16676252 0.92312884 -0.52706677 6
-1.3755901 7.6147027 -1.0874987 0
-0.23387514 1.2946368 -0.6995126 9
-0.30310112 1.6778436 -0.85640806 15
-1.4539038 8.0482149 -0.76301432 0
-0.32682431 1.8091652 -0.87020862 11
-1.5428472 8.5405693 -0.60688132 1
-0.35631135 1.9723934 -0.89238018 9
-6.4773645 35.856033 -1.6991771 47
-0.85135281 4.7127399 -2.000345 8
-0.91242617 5.050817 -2.0042019 9
-0.98727047 5.4651246 -2.0213389 8
-6.7918968 37.597153 0.88702375 9
-1.0660802 5.9013824 -2.0263405 14
-1.1583848 6.412343 -2.033293 9
-9.8401728 54.471161 3.8706472 27
-1.1087033 6.1373267 -1.7883352 62
-8.198432 45.383156 4.3025684 19
-1.1051211 6.1174974 -1.6273938 103
-9.7674198 54.068432 6.4252243 60
-1.1143521 6.1685963 -1.4852628 101
-6.7726774 37.490765 5.3542676 36
-1.1313092 6.2624636 -1.3526734 7
-1.1774652 6.5179644 -1.2479252 1
-9.8606596 54.584568 10.450725 27
-0.14483631 0.8164072 -0.49172929 5
-1.2465693 7.0266094 -1.1724555 1
-0.16294788 0.91849774 -0.52412772 5
-1.3558125 7.6423874 -1.0908388 0
-0.2304237 1.2988427 -0.7013905 9
-1.6721648 9.4255886 -1.1194605 0
-0.29876512 1.6840667 -0.85910112 15
-1.4352216 8.0899973 -0.76654422 1
-0.32208633 1.8155228 -0.87277561 11
-1.5201907 8.5689468 -0.6085555 1
-0.35011312 1.9735031 -0.89238018 9
-6.3545675 35.81916 -1.6964753 47
-0.83718789 4.7190256 -2.0018868 10
-8.5192623 48.021023 -1.1323154 14
-0.89525241 5.0463214 -2.001292 6
-6.6545854 37.510288 0 5
-0.96911156 5.4626474 -2.0192869 8
-1.0478662 5.9065685 -2.0269809 13
-6.9816833 39.354061 1.8638961 12
-1.1382341 6.4159503 -2.033293 9
-1.0894169 6.1407795 -1.7883352 62
-9.5901747 54.057495 5.1220613 27
-1.0879248 6.132369 -1.6304328 103
-8.1783047 46.099129 5.4751115 13
-1.0946275 6.1701503 -1.4848017 101
-8.1027012 45.672966 6.5191464 20
-1.1116295 6.2659869 -1.3526734 7
-1.156296 6.5177608 -1.2471845 1
-9.6905022 54.623016 10.452206 27
-0.14255591 0.81680852 -0.49172929 6
-1.2279603 7.0358953 -1.1734283 1
-0.1606821 0.92066687 -0.52510738 5
-1.3310606 7.6266336 -1.0880553 0
-0.22679575 1.299481 -0.7013905 9
-1.5150307 8.6807346 -1.030489 2
-0.29406115 1.6848944 -0.85910112 15
-1.4119397 8.0900497 -0.76617265 1
-0.31639358 1.8128536 -0.87106431 11
-1.5010581 8.6006746 -0.61050868 1
-0.34491485 1.9762729 -0.89319366 9
-6.2455859 35.785595 -1.6940529 47
-0.8249585 4.726799 -2.0041993 10
-8.3992243 48.125385 -1.1342187 14
-0.88211781 5.0543075 -2.0034745 11
-7.781167 44.58408 0 11
-0.95449948 5.4690356 -2.0206549 8
-1.0320194 5.9132047 -2.0282612 14
-7.1709347 41.087601 1.9450445 15
-1.1193283 6.4134617 -2.0315058 12
-1.0729254 6.1475854 -1.7894378 62
-1.0701305 6.1315713 -1.6294198 102
-9.5440788 54.685108 6.4916625 61
-1.0767237 6.1693487 -1.4838794 108
-9.5336494 54.625347 7.7931371 48
-1.0941273 6.2690668 -1.3526734 7
-9.5630932 54.794052 9.1384087 59
-1.1394421 6.5287089 -1.2486657 1
-9.5389414 54.655674 10.453317 27
-0.14056541 0.81889886 -0.49274948 6
-1.209977 7.0490227 -1.1750494 1
-0.1578155 0.91939348 -0.52412772 5
-1.310428 7.6342249 -1.088612 0
-0.22226979 1.294888 -0.69857371 9
-0.28965726 1.6874704 -0.85999882 15
-1.3940591 8.121438 -0.76877362 1
-0.31071827 1.8101667 -0.86935294 11
-4.1789684 24.345621 -1.7273098 4
-0.33939472 1.9772284 -0.89319366 9
-6.1449537 35.798958 -1.6938666 47
-0.80988228 4.7181711 -1.9995743 8
-8.3003178 48.355568 -1.1390929 14
-0.86800015 5.0567508 -2.0034745 7
-6.9843235 40.688915 0 7
-0.93858743 5.4679751 -2.0192869 10
-1.0148615 5.9123287 -2.0269809 14
-6.985867 40.697906 1.9256657 29
-1.1017371 6.4184442 -2.0321014 11
-9.4019194 54.773224 3.8861332 27
-1.0564045 6.1543474 -1.7905402 61
-9.3591967 54.52433 5.1612616 28
-10.486904 61.09407 7.2489653 26
-1.0687102 6.2260375 -1.4967908 11
-9.3840847 54.669327 7.7956419 48
-1.0776094 6.2778816 -1.3539209 7
-1.1172161 6.5086203 -1.244222 1
-9.3906002 54.707279 10.458131 27
-0.13856436 0.82098442 -0.49376968 6
-1.1935722 7.0718341 -1.1782919 1
-0.15408672 0.91295338 -0.52020901 5
-1.2947075 7.6710539 -1.0933439 0
-0.22012235 1.3042099 -0.70326841 9
-1.4856997 8.8026695 -1.0439625 0
-0.28405151 1.6829859 -0.85730571 14
-1.3750199 8.1468992 -0.77081728 0
-0.30626383 1.8145924 -0.87106431 11
-4.1066499 24.331621 -1.7254962 8
-0.33356786 1.9763669 -0.89238018 9
-6.0419679 35.798248 -1.6930281 47
-0.79823917 4.7295127 -2.0034285 7
-0.8541857 5.0609922 -2.0042019 7
-6.3224692 37.460197 0 5
-0.92331433 5.4705749 -2.0192869 10
-0.99677056 5.905798 -2.0237796 13
-1.0838091 6.4214954 -2.0321014 10
-9.2718382 54.935009 3.8957596 27
-1.0392141 6.1572733 -1.7905402 61
-9.2188301 54.620941 5.1679497 28
-1.0817645 6.4093814 -1.5401359 18
-9.2336903 54.708988 7.7975907 48
-1.0594229 6.2770085 -1.3530893 7
-1.1009988 6.5233431 -1.2464439 1
-9.2512026 54.812748 10.473313 27
-0.13739741 0.82815635 -0.49785042 6
-1.1718812 7.063458 -1.1763464 1
-0.15239282 0.91854042 -0.52314806 5
-1.2723083 7.6687779 -1.0925088 0
-0.21619044 1.3030776 -0.70232946 9
-0.28022817 1.6890619 -0.85999882 15
-1.3555233 8.170352 -0.7726751 0
-0.30149123 1.8172239 -0.87191993 11
-4.0341158 24.315439 -1.7235429 8
-0.32954273 1.986303 -0.89644754 10
-5.9364181 35.781475 -1.6914443 46
-0.78502882 4.7317238 -2.0034285 8
-0.83974451 5.0615196 -2.0034745 10
-6.2335482 37.572414 0 5
-0.90772641 5.4712777 -2.0186028 10
-6.487453 39.102814 0.92026156 10
-0.98058474 5.9104276 -2.0244198 13
-1.0661852 6.4263806 -2.0326972 11
-9.0867195 54.769768 3.8822267 82
-1.0229598 6.1658411 -1.7921941 61
-1.0165092 6.1269603 -1.6258743 156
-9.1002512 54.85133 6.5021162 41
-1.0654546 6.4219766 -1.5424415 25
-9.0896301 54.787312 7.8051057 24
-1.0415698 6.2780128 -1.3526734 5
-9.1366682 55.070831 9.1714821 29
-1.0830996 6.5283308 -1.2468143 1
-0.13451879 0.826886 -0.49683022 6
-1.149685 7.0671048 -1.1763464 1
-0.14922643 0.91729367 -0.5221684 5
-1.249482 7.6805568 -1.0936222 0
-0.21181209 1.3020073 -0.7013905 9
-0.2743465 1.6864059 -0.85820341 15
-1.3311278 8.1824322 -0.77341825 0
-0.29607102 1.8199463 -0.87277561 11
-3.9561048 24.318146 -1.7228454 8
-0.32300755 1.985525 -0.89563411 10
-5.8188457 35.768398 -1.6899536 46
-0.77015978 4.7341666 -2.0034285 8
-6.7463093 41.469513 -0.97545683 15
-0.82324088 5.0604553 -2.0020196 8
-0.89143878 5.4796672 -2.0206549 8
-0.96292448 5.9190893 -2.0263405 14
-1.0459909 6.4296985 -2.0326972 8
-8.9142904 54.796078 3.8820872 27
-1.004819 6.1766148 -1.7943991 61
-0.99974114 6.145401 -1.6299263 155
-1.0305872 6.3350115 -1.5207689 12
-8.9168301 54.811687 7.8045492 48
-1.0215276 6.2793231 -1.3522576 3
-1.0641629 6.5414009 -1.2486657 1
-8.9257765 54.86668 10.473313 27
-0.13029508 0.81711185 -0.4907091 5
-1.1290312 7.0804262 -1.1779677 1
-0.14689305 0.92120171 -0.52412772 5
-1.2287773 7.7059579 -1.096684 0
-0.20772067 1.3026663 -0.7013905 7
-1.3879191 8.7039747 -1.0307213 7
-0.26932859 1.6890243 -0.85910112 14
-1.3076104 8.2003393 -0.7747187 0
-0.28921342 1.8137268 -0.86935294 11
-3.8771744 24.314693 -1.7217293 8
-0.31648055 1.9847257 -0.89482063 10
-5.6970096 35.727318 -1.6871586 46
-0.75586444 4.7402077 -2.0049701 10
-6.5536551 41.099548 -0.96626538 22
-0.80704558 5.0611768 -2.001292 7
-6.7925692 42.597836 0 18
-0.87362766 5.4787288 -2.0192869 9
-0.94402605 5.9202142 -2.0257003 14
-1.025185 6.4291821 -2.0315058 13
-0.98480421 6.1759439 -1.7932967 59
-0.98073453 6.1504221 -1.6304328 151
-7.5514436 47.356918 5.6079879 14
-1.0140511 6.3593578 -1.5258412 11
-8.7539473 54.898106 7.8128996 24
-1.0024117 6.286365 -1.3530893 3
-1.0439167 6.5466528 -1.2490361 1
-0.12815545 0.81745017 -0.4907091 6
-1.1107966 7.0853076 -1.1782919 1
-0.14556108 0.92847341 -0.52804643 5
-1.2067585 7.6974087 -1.095014 0
-0.20321557 1.2962273 -0.69763476 9
-1.3645121 8.7036533 -1.0302567 3
-0.2643522 1.6861924 -0.85730571 15
-1.2901471 8.22931 -0.77713394 0
-0.28446409 1.8144778 -0.86935294 11
-3.8116515 24.312933 -1.7208922 8
-0.31071752 1.9819374 -0.89319366 9
-5.6043844 35.748028 -1.6874381 46
-0.74288034 4.738524 -2.0034285 13
-6.4478927 41.128418 -0.96654391 14
-0.79494691 5.0706344 -2.0042019 6
-6.9313159 44.211971 0 10
-0.85957247 5.4828539 -2.0199709 9
-0.92823029 5.9207935 -2.0250602 14
-1.0092371 6.4375024 -2.033293 12
-0.9698233 6.1860981 -1.7955017 57
-0.9649291 6.15488 -1.6309394 155
-7.4305143 47.396149 5.610311 14
-0.99950874 6.3754492 -1.5290691 13
-0.98837459 6.3044291 -1.3564159 4
-1.026774 6.5493631 -1.2490361 1
-0.12625225 0.82122731 -0.49274948 6
-1.0915685 7.100276 -1.1802373 1
-0.14227572 0.9254545 -0.52608711 5
-1.1872249 7.7224884 -1.0980757 0
-0.19990535 1.3003154 -0.6995126 9
-0.25934801 1.6869693 -0.85730571 15
-1.2660272 8.2350693 -0.77731967 1
-0.27962855 1.8188872 -0.87106431 10
-3.7352526 24.296528 -1.7189391 8
-0.30455801 1.9810447 -0.89238018 10
-5.4982934 35.7645 -1.6874381 46
-0.7274155 4.7315869 -1.9995743 11
-8.6193705 56.066029 -1.3169805 21
-0.77904928 5.0674467 -2.0020196 7
-6.3378711 41.225666 0 16
-0.84301519 5.4835229 -2.0192869 10
-0.91065884 5.9235215 -2.0250602 16
-6.0589905 39.411644 1.8595173 12
-0.98984212 6.4385815 -2.0326972 11
-0.95263308 6.1965494 -1.7977068 53
-0.94813293 6.1672778 -1.6334718 167
-8.4646349 55.059528 6.5144281 62
-0.98177093 6.3860807 -1.5309135 13
-8.4478054 54.950054 7.8134561 24
-0.97025919 6.3112011 -1.3572475 4
-8.4767485 55.138325 9.1653214 59
-1.0085318 6.5601516 -1.2505172 1
-0.12370182 0.81987572 -0.49172929 6
-1.071442 7.1013451 -1.179913 1
-0.13917056 0.92239994 -0.52412772 5
-1.1694963 7.7512326 -1.1016942 0
-0.19627342 1.3008685 -0.6995126 9
-0.25463611 1.6876869 -0.85730571 15
-1.2448082 8.2503872 -0.7784344 0
-0.27535728 1.8250235 -0.8736313 11
-3.6653059 24.293055 -1.7179624 8
-0.29956988 1.9855007 -0.89400715 10
-5.3939281 35.750084 -1.6860406 46
-0.71392429 4.7317748 -1.9988034 15
-8.463069 56.091858 -1.3170269 21
-0.76433939 5.065918 -2.0005646 10
-6.6204638 43.879368 0 10
-0.82741863 5.4839973 -2.0186028 10
-0.89439642 5.9279151 -2.0257003 15
-0.97185838 6.4413204 -2.0326972 8
-8.3060226 55.050976 3.8931088 27
-0.93532538 6.1991854 -1.7977068 53
-0.93061835 6.1679883 -1.6329653 145
-7.1775627 47.571728 5.6261077 14
-0.96654689 6.4061165 -1.5350635 14
-0.95321494 6.3177547 -1.3580792 4
-0.99020851 6.562942 -1.2505172 1
-0.12152025 0.82194084 -0.49274948 6
-1.0512332 7.1103497 -1.1808858 1
-0.13719818 0.92798346 -0.52706677 4
-1.1464927 7.7546682 -1.1016942 0
-0.19292934 1.3049389 -0.7013905 9
-0.24988891 1.6902031 -0.85820341 15
-2.613647 17.678232 -1.6672244 1
-0.26941234 1.822256 -0.87191993 11
-3.5911682 24.290007 -1.7169858 8
-0.29367745 1.9863808 -0.89400715 10
-5.2778969 35.698734 -1.6828729 46
-0.70204097 4.7484775 -2.0049701 7
-8.3001137 56.140457 -1.3175839 42
-0.75121248 5.0810647 -2.005657 10
-6.4750319 43.795937 0 10
-0.81141853 5.488287 -2.0192869 10
-0.87652689 5.9286685 -2.0250602 14
-8.0692244 54.578766 2.572896 28
-0.95302159 6.4460645 -2.033293 11
-0.91805261 6.2095408 -1.799912 51
-0.91316241 6.1764641 -1.6344849 142
-0.95436645 6.4551606 -1.5461304 13
-0.93532401 6.3263612 -1.3593266 4
-0.97274369 6.5794611 -1.2531093 1
-0.11858789 0.81889284 -0.4907091 6
-1.0326774 7.1310163 -1.183804 1
-0.13394439 0.92493516 -0.52510738 4
-1.1246146 7.7658763 -1.1028076 0
-0.18905666 1.3055056 -0.7013905 9
-0.24410446 1.6856308 -0.85551035 15
-2.5520506 17.622845 -1.6612793 5
-0.26400441 1.8230473 -0.87191993 10
-3.5193686 24.30253 -1.7171254 8
-0.2869969 1.9818188 -0.89156669 10
-5.1693769 35.696442 -1.6820345 46
-0.68741989 4.7468867 -2.0034285 7
-8.137804 56.194519 -1.3182803 42
-0.73426437 5.0703645 -2.0005646 10
-8.1411428 56.217579 0 21
-0.79513091 5.4906707 -2.0192869 8
-5.8318348 40.270958 0.94472575 11
-0.85947549 5.9349933 -2.0263405 14
-5.7978683 40.036404 1.8865356 13
-0.93361795 6.4469743 -2.0326972 9
-0.90100223 6.2217507 -1.8026683 46
-0.89538705 6.1829762 -1.6354978 143
-8.021699 55.392769 6.5453243 21
-0.94022995 6.4926324 -1.5544305 17
-0.91626883 6.3271723 -1.3589108 4
-0.95490789 6.5939894 -1.2553312 1
-0.11601467 0.81926137 -0.4907091 6
-1.0127599 7.1518116 -1.1867222 1
-0.13103798 0.92535144 -0.52510738 5
-1.1829638 8.3537407 -1.1857548 0
-0.18569717 1.3113384 -0.70420736 9
-1.1455612 8.0896149 -0.95545566 0
-0.23930886 1.6899284 -0.85730571 14
-2.4860642 17.555851 -1.6542195 5
-0.2580224 1.8220778 -0.87106431 11
-3.437408 24.273958 -1.7143351 7
-0.28153795 1.9881377 -0.89400715 10
-5.0566473 35.708549 -1.681848 46
-0.67224503 4.7471957 -2.0026577 8
-6.972168 49.23539 -1.1545049 15
-0.71911538 5.0781803 -2.0027471 9
-5.5506349 39.196941 0 6
-0.77840459 5.4968629 -2.0206549 8
-0.8402946 5.9339123 -2.0250602 14
-0.91282421 6.4460945 -2.0315058 9
-0.88172114 6.2264543 -1.8032196 43
-0.87677211 6.1915054 -1.6370174 143
-7.8507013 55.439331 6.5478797 21
-0.91655374 6.4724317 -1.5488971 15
-0.89830697 6.3435783 -1.3618215 4
-0.9344632 6.5989027 -1.2557015 1
-0.11363272 0.8178584 -0.48968893 6
-0.99457633 7.1583481 -1.1873707 1
-0.12933482 0.93087244 -0.52804643 5
-0.18153439 1.3065728 -0.7013905 9
-1.1180912 8.0473328 -0.9501127 2
-0.23463787 1.688779 -0.85640806 14
-2.429955 17.489321 -1.6473455 4
-0.25300255 1.8209565 -0.87020862 11
-3.3711014 24.263113 -1.71294 7
-0.27582917 1.9852486 -0.89238018 10
-4.961771 35.711773 -1.6813823 45
-0.65879869 4.7416277 -1.9995743 10
