# .PCD v0.7 - Point Cloud Data file format
VERSION 0.7
FIELDS x y z intensity
SIZE 4 4 4 4
TYPE F F F F
COUNT 1 1 1 1
WIDTH 1395
HEIGHT 1
VIEWPOINT 0 0 0 1 0 0 0
POINTS 1395
DATA ascii
-1.5717565 4.2128172 -2.0019577 7
-1.6772438 4.4955578 -2.0041993 8
-19.021763 50.984497 -1.26341 38
-1.7941072 4.8087893 -2.0042019 8
-16.606583 44.511028 0 13
-1.9399599 5.1997218 -2.0199709 8
-13.984658 37.483421 0.92884958 11
-2.0969 5.6203723 -2.0269809 14
-14.664605 39.305901 1.9564109 16
-2.2764018 6.1014953 -2.0321014 8
-2.4938831 6.6844158 -2.0457804 8
-19.213308 51.497902 5.1280065 55
-2.7512543 7.3742542 -2.0604539 12
-19.256405 51.613415 6.4421825 40
-3.0598617 8.2014217 -2.0741112 8
-19.193411 51.444569 7.7168703 100
-3.447185 9.2395744 -2.0961657 7
-3.8795969 10.398579 -2.0911078 3
-19.291496 51.70747 10.398142 27
-0.28587306 0.77281529 -0.48866874 6
-4.4744625 12.096045 -2.1189151 4
-0.32061076 0.86672348 -0.51922935 4
-5.3354759 14.423666 -2.1613584 2
-0.43314496 1.170943 -0.66383278 4
-6.6339974 17.934027 -2.2361333 4
-0.5989663 1.6192163 -0.86718047 13
-8.7084303 23.541946 -2.3418057 5
-0.64534926 1.7446058 -0.88047659 9
-12.069561 32.628265 -2.4326873 45
-1.5593522 4.2154765 -2.0011442 10
-1.6640431 4.4984932 -2.0034285 7
-18.898737 51.089924 -1.2647097 38
-1.7832569 4.8207698 -2.0071118 9
-1.9195638 5.1892552 -2.0138147 7
-14.169197 38.304317 0.94820738 12
-2.0818541 5.6279831 -2.027621 14
-14.651822 39.609024 1.9694542 16
-2.2586918 6.1060376 -2.0315058 8
-2.476541 6.6949601 -2.0468831 8
-19.07288 51.560692 5.1289353 55
-2.7299795 7.3800936 -2.0599473 13
-19.201792 51.909187 6.4723816 20
-3.0389726 8.2154102 -2.0754945 9
-3.4200125 9.2454948 -2.0953341 7
-3.8546348 10.420432 -2.0933297 4
-19.134071 51.726116 10.391106 27
-0.28489843 0.77684069 -0.4907091 6
-4.4399872 12.106639 -2.1185908 4
-0.31878951 0.86925244 -0.52020901 4
-5.2951765 14.438509 -2.1613584 2
-0.4304814 1.173806 -0.66477174 4
-6.5866265 17.959942 -2.2370625 4
-0.59321153 1.6175268 -0.86538506 13
-8.6570539 23.605434 -2.3457072 5
-0.64047492 1.7464011 -0.88047659 10
-11.969469 32.637489 -2.4308736 44
-1.5488324 4.2232451 -2.0027711 7
-1.6502036 4.4996572 -2.0018868 7
-18.762878 51.161274 -1.265174 38
-1.7672219 4.8187342 -2.0042019 8
-14.050127 38.310879 0 7
-1.9108891 5.2104754 -2.0199709 7
-13.62639 37.155464 0.91882253 10
-2.0641725 5.628438 -2.0257003 14
-2.2409744 6.1105289 -2.03091 8
-2.4571736 6.7000446 -2.0463316 8
-18.878769 51.477272 5.1153731 27
-2.710026 7.3895049 -2.0604539 12
-3.014679 8.220211 -2.0745723 8
-18.881243 51.48402 7.7068496 23
-3.388792 9.2403154 -2.0920074 7
-3.8255205 10.431155 -2.0933297 4
-18.980753 51.75536 10.386292 28
-0.2821402 0.77601653 -0.48968893 5
-3.3022611 9.0827513 -1.5878083 3
-0.3151693 0.86686194 -0.51824969 4
-5.2575431 14.460685 -2.1624715 2
-0.43263239 1.18994 -0.67322224 5
-6.5432348 17.996933 -2.2393856 4
-0.58869225 1.619177 -0.86538506 13
-8.5958643 23.642618 -2.3470075 5
-0.63497788 1.7464839 -0.87962091 10
-11.874872 32.661411 -2.430176 44
-1.5320385 4.2138171 -1.9962634 7
-11.146184 30.657181 -1.5212284 15
-1.6414152 4.5146542 -2.0065119 7
-16.040173 44.11792 -1.0898861 12
-1.7512124 4.8166471 -2.001292 8
-1.8963313 5.2157917 -2.0199709 8
-2.047152 5.630619 -2.0244198 13
-14.425598 39.677094 1.968802 16
-2.2252066 6.1203513 -2.0321014 8
-18.807961 51.730621 3.8490226 54
-2.4364831 6.7014599 -2.044678 8
-18.788017 51.67577 5.1298642 55
-2.6893802 7.3970442 -2.0604539 11
-2.9903822 8.2249393 -2.0736499 8
-18.761086 51.601692 7.7165918 12
-3.3669858 9.2607746 -2.0945024 7
-3.7970479 10.443645 -2.0936999 4
-18.84824 51.841408 10.392958 27
-0.28100246 0.78008711 -0.49172929 6
-0.31377771 0.87107414 -0.52020901 4
-3.215086 8.9253569 -1.3332783 1
-0.44166765 1.2261076 -0.69294006 6
-6.491828 18.021875 -2.2400825 4
-0.58267409 1.6175537 -0.86358964 14
-8.5310764 23.683006 -2.3484938 5
-0.62979317 1.7483603 -0.87962091 10
-11.777912 32.696503 -2.430176 29
-1.5244827 4.2320957 -2.0027711 8
-11.042986 30.656284 -1.5195514 31
-1.6298891 4.524713 -2.0088243 7
-15.909202 44.165318 -1.0898861 25
-1.7394389 4.8288326 -2.0042019 8
-15.935178 44.237434 0 13
-1.8763889 5.2090178 -2.0151827 7
-13.627649 37.831532 0.93358457 22
-2.0330052 5.6437984 -2.0269809 14
-14.110106 39.170876 1.9415973 15
-2.2070374 6.1269269 -2.0321014 11
-14.667114 40.717178 3.026315 13
-2.4146342 6.7032332 -2.0430241 6
-18.636633 51.736908 5.1304216 55
-2.6654537 7.3995299 -2.0589342 12
-18.666277 51.819199 6.441021 40
-2.9653056 8.231945 -2.0731888 9
-18.597158 51.627319 7.7121382 100
-3.2247961 8.9523125 -2.0225649 6
-3.2238512 8.9496899 -1.7922723 2
-18.697004 51.904503 10.394439 27
-0.27797246 0.77934581 -0.4907091 6
-0.31279692 0.87698245 -0.52314806 4
-3.1118457 8.7246199 -1.3018252 3
-0.44730544 1.2541013 -0.70796311 9
-6.4391823 18.053408 -2.2414763 4
-0.5793907 1.6244262 -0.86628276 14
-8.4619846 23.724697 -2.3499801 5
-0.62611932 1.7554382 -0.8821879 11
-11.658379 32.686363 -2.4266882 29
-1.5117935 4.238585 -2.0035846 7
-1.6113265 4.5176439 -2.0034285 8
-18.326225 51.380871 -1.2665203 38
-1.7230084 4.8307643 -2.0027471 9
-13.355149 37.443565 0 6
-1.8612778 5.2184272 -2.0165508 8
-13.675315 38.341206 0.94509715 11
-2.0114455 5.6394496 -2.0231395 12
-14.366183 40.278183 1.9942366 17
-2.1871369 6.1320319 -2.0315058 9
-14.433226 40.466145 3.0042717 13
-2.396147 6.7180295 -2.0452292 9
-18.463303 51.76519 5.127449 55
-2.6441443 7.4133344 -2.0604539 11
-2.9394295 8.2412195 -2.0731888 8
-18.430216 51.672432 7.7101898 100
-3.1237056 8.7578716 -1.9764085 7
-18.514307 51.908192 9.054431 58
-18.51008 51.896339 10.381107 28
-0.27694178 0.78336275 -0.49274948 6
-3.019995 8.5424147 -1.4885906 4
-0.30918434 0.87456471 -0.52118868 4
-3.0353189 8.5857601 -1.2798358 3
-0.43614984 1.2337016 -0.69575685 7
-3.2728319 9.2575941 -1.1482658 1
-0.57425654 1.6243528 -0.86538506 13
-8.4016733 23.765131 -2.3516521 5
-0.61759955 1.7469537 -0.87705392 10
-11.55043 32.671764 -2.4232004 29
-1.4975153 4.2358999 -2.0003309 9
-1.5993197 4.5238657 -2.0041993 7
-18.178005 51.418652 -1.2661953 38
-1.7095116 4.835557 -2.0027471 8
-13.290532 37.593849 0 6
-1.8479508 5.2271485 -2.0179188 8
-13.155662 37.212353 0.91636217 10
-1.9994787 5.6557631 -2.0269809 11
-14.45675 40.892635 2.0226524 38
-2.1706409 6.1399159 -2.0321014 8
-14.397306 40.724495 3.0204554 13
-2.3799405 6.7319446 -2.0474343 11
-18.320002 51.820301 5.1278205 55
-2.6234319 7.4206896 -2.0604539 10
-2.918999 8.2567358 -2.0750334 9
-18.29311 51.744236 7.7132516 100
-3.0470722 8.6190062 -1.9431427 8
-18.392599 52.025654 10.396661 27
-0.27361545 0.78088611 -0.4907091 6
-2.9171627 8.3254509 -1.4493574 2
-0.30904722 0.88200682 -0.52510738 4
-2.9536979 8.4297209 -1.2553414 3
-0.44204611 1.2615796 -0.71077996 8
-3.192446 9.1110964 -1.1289848 2
-0.56853628 1.6225768 -0.86358964 14
-8.3385687 23.797897 -2.352581 5
-0.61451203 1.7537897 -0.87962091 11
-11.437377 32.641758 -2.4185965 29
-1.4844723 4.2366166 -1.9987038 10
-1.5885112 4.5335393 -2.0065119 7
-18.040298 51.486195 -1.266613 38
-1.6960015 4.840312 -2.0027471 8
-13.20071 37.674232 0 6
-1.8321037 5.2287412 -2.0165508 9
-13.305588 37.973545 0.93418807 22
-1.9799178 5.6505957 -2.0231395 13
-13.571533 38.73254 1.9139267 14
-2.1503298 6.1369443 -2.0291228 9
-18.264441 52.125889 3.8622766 27
-2.359225 6.7331214 -2.0457804 8
-18.178513 51.880657 5.1287494 55
-2.6020596 7.4261603 -2.0599473 13
-2.8952868 8.2630177 -2.0745723 9
-18.138063 51.765213 7.7087979 100
-3.0113473 8.5942488 -1.9356579 7
-18.236847 52.047138 10.390736 27
-0.27242535 0.78494483 -0.49274948 6
-2.8316221 8.1588116 -1.4188788 3
-0.30528551 0.87962544 -0.52314806 4
-2.8721781 8.2756653 -1.2311252 3
-0.433669 1.2495394 -0.70326841 9
-3.097662 8.9253569 -1.1048255 1
-0.56547743 1.6293218 -0.86628276 14
-8.2705336 23.830059 -2.3533242 5
-0.60930574 1.7556052 -0.87962091 10
-11.328702 32.641624 -2.4160852 29
-1.4724945 4.2427287 -1.9995173 7
-1.5738428 4.5347457 -2.0049701 7
-14.686267 42.315842 -1.0399364 21
-1.6822435 4.8470826 -2.0034745 8
-13.06264 37.637653 0 6
-1.8178141 5.2377052 -2.0179188 9
-12.850647 37.026833 0.90995598 10
-1.9650072 5.6618156 -2.0250602 14
-14.175789 40.844994 2.0162239 18
-2.1333637 6.1469049 -2.0303142 10
-18.083534 52.104458 3.8566959 27
-2.3379762 6.7364593 -2.044678 9
-18.008831 51.889214 5.1242905 27
-2.5857236 7.4502988 -2.0645058 14
-18.45701 53.180565 6.5829573 21
-2.8694811 8.2678947 -2.0736499 8
-17.964262 51.760799 7.7001696 96
-2.985193 8.6012983 -1.9352421 7
-2.8257682 8.1419449 -1.6237838 0
-18.093294 52.132584 10.397031 27
-0.26967284 0.7840758 -0.49172929 6
-2.7497754 7.9949923 -1.3890486 3
-0.30282795 0.88047451 -0.52314806 4
-2.8001018 8.1413164 -1.209971 3
-0.42443457 1.2340467 -0.69387895 7
-2.9984272 8.7179489 -1.0781108 2
-0.55801898 1.6224443 -0.86179423 14
-8.2130222 23.879425 -2.3559253 5
-0.60204905 1.7504621 -0.87619823 11
-11.222581 32.629738 -2.4128764 43
-1.4606408 4.2468243 -1.9995173 8
-1.5611732 4.5391231 -2.0049701 7
-17.744762 51.593025 -1.2667059 19
-1.6693072 4.8535233 -2.0042019 9
-12.999116 37.795025 0 6
-1.8037919 5.2445383 -2.0186028 8
-12.868155 37.414257 0.91859043 10
-1.9485725 5.6654892 -2.0244198 11
-2.11619 6.1528382 -2.0303142 8
-17.908112 52.067966 3.8502784 54
-2.3197808 6.7447801 -2.0452292 8
-17.880697 51.988262 5.1291208 55
-2.5579865 7.4373646 -2.0589342 13
-17.924664 52.116093 6.4449701 81
-2.8470147 8.2777166 -2.0741112 8
-17.809343 51.780796 7.6957159 72
-2.9630709 8.6151505 -1.9364895 7
-17.928741 52.127949 9.0567007 58
-2.7250347 7.923059 -1.5786067 0
-17.938055 52.155025 10.391477 27
-0.26914707 0.78971064 -0.49478984 6
-2.6771426 7.8550658 -1.3634335 3
-0.3009305 0.88296711 -0.52412772 4
-2.4176478 7.0936761 -1.053262 1
-0.41870815 1.2285413 -0.6901232 6
-2.9452331 8.6416769 -1.0676572 2
-0.55636883 1.6324545 -0.86628276 14
-8.1514463 23.917345 -2.3574114 5
-0.59890801 1.7572697 -0.87876523 10
-11.110822 32.600521 -2.408412 28
-1.4517229 4.2595334 -2.0035846 7
-1.5437288 4.5294905 -1.9988034 8
-16.135136 47.342472 -1.161236 31
-1.6551461 4.8564024 -2.0034745 9
-1.7873205 5.2442183 -2.0165508 9
-1.9351888 5.678082 -2.0269809 14
-14.041543 41.199615 2.0298264 19
-2.0983839 6.1569166 -2.0297184 11
-18.116632 53.156429 3.9270105 28
-2.3021772 6.7548709 -2.0463316 11
-2.5397041 7.4518046 -2.0609603 10
-18.141125 53.228291 6.5762205 21
-2.8238878 8.285634 -2.0741112 9
-17.76115 52.1134 7.7377462 48
-2.6147678 7.67205 -1.5271345 1
-17.799314 52.22538 10.39555 27
-0.2666648 0.79055226 -0.49478984 6
-2.6007276 7.7100959 -1.3368458 3
-0.29648319 0.87895167 -0.52118868 4
-2.3940845 7.0974832 -1.0527053 5
-0.41258883 1.2231575 -0.68636745 6
-2.895848 8.5850077 -1.0595267 3
-0.55009508 1.6308075 -0.86448735 13
-8.0864506 23.973026 -2.360384 5
-0.59222883 1.7557168 -0.87705392 11
-11.003248 32.62014 -2.4072959 28
-1.4342462 4.2519546 -1.9978904 6
-1.5318508 4.5413122 -2.0018868 8
-15.96907 47.341778 -1.1599827 15
-1.6386902 4.858048 -2.0020196 10
-12.665937 37.549332 0 6
-1.7720379 5.2533689 -2.0179188 7
-12.914318 38.285683 0.93808746 11
-1.9161298 5.6805429 -2.0257003 14
-13.891608 41.182949 2.026845 19
-2.079031 6.1634784 -2.0297184 9
-17.934881 53.169601 3.9238017 28
-2.278487 6.7547836 -2.0441267 9
-17.856386 52.936897 5.2121663 28
-2.5150442 7.45608 -2.0599473 12
-17.970638 53.275608 6.5750589 21
-2.7972219 8.2926207 -2.0736499 8
-2.6455293 7.8429146 -1.7593488 3
-18.013966 53.404053 9.259675 30
-2.5529611 7.5684872 -1.5049162 3
-0.26322803 0.78807676 -0.49274948 6
-2.5328231 7.5830026 -1.3135004 6
-0.2949788 0.88313514 -0.52314806 4
-2.3661134 7.0838914 -1.0496435 5
-0.40727949 1.2193514 -0.6835506 6
-2.8426726 8.5106592 -1.0493054 0
-0.54468781 1.6307373 -0.86358964 14
-8.0285349 24.036579 -2.3642855 5
-0.58701694 1.7574662 -0.87705392 11
-10.898197 32.628044 -2.4054823 28
-1.4216241 4.2561913 -1.9978904 4
-10.222425 30.604853 -1.5047379 15
-1.5183698 4.5458374 -2.0018868 7
-17.289261 51.762203 -1.2670308 38
-1.6266298 4.8699565 -2.0049295 7
-1.7558476 5.2568212 -2.0172348 9
-1.8974662 5.6808119 -2.0237796 11
-13.832648 41.413475 2.0361617 19
-2.0613394 6.1714311 -2.0303142 9
-17.801064 53.294491 3.9291031 28
-2.2572169 6.7578673 -2.0430241 10
-17.800812 53.293736 5.2420774 28
-2.4929106 7.4635091 -2.0599473 11
-17.81123 53.324924 6.574594 21
-2.7707553 8.2953463 -2.0722666 9
-17.830242 53.381847 7.9097638 24
-2.5522134 7.6410551 -1.7123607 0
-2.4918888 7.4604497 -1.4819573 3
-0.26062325 0.78713012 -0.49172929 6
-2.4782236 7.4846907 -1.2953429 3
-0.29102156 0.87893856 -0.52020901 4
-2.3469372 7.0881815 -1.0493652 7
-0.40963647 1.2371775 -0.69294006 6
-2.8316212 8.5520163 -1.0534868 1
-0.54097843 1.6338543 -0.86448735 14
-2.8999317 8.7583265 -0.86073667 0
-0.5846867 1.7658614 -0.88047659 11
-1.4156452 4.2755089 -2.0052116 5
-10.125312 30.580303 -1.5022224 45
-1.5064635 4.5497971 -2.0018868 8
-17.151175 51.799698 -1.2668451 38
-1.6132891 4.8724298 -2.0042019 8
-12.423336 37.52076 0 6
-1.7397163 5.2542634 -2.0144987 7
-12.413704 37.491669 0.91691923 10
-1.884374 5.6911559 -2.0257003 14
-2.0427752 6.1695566 -2.0279312 9
-17.679037 53.39394 3.9330094 28
-2.239517 6.7637534 -2.0430241 8
-17.663733 53.347717 5.2428207 28
-2.4733627 7.4700103 -2.0599473 12
-17.683428 53.407204 6.5790081 21
-2.7478051 8.2988768 -2.0713444 8
-17.690428 53.428345 7.9097638 24
-2.4670198 7.4508538 -1.6682835 0
-17.673239 53.376431 9.237627 30
-2.418602 7.3046227 -1.4497409 3
-0.25868469 0.78957975 -0.49274948 6
-2.4116864 7.3611574 -1.2726461 5
-0.28717312 0.87653458 -0.51824969 4
-2.3215742 7.0861092 -1.0479734 7
-0.39915022 1.2183207 -0.68167269 5
-2.818965 8.6042881 -1.0588298 1
-0.53584284 1.6355458 -0.86448735 14
-2.8283832 8.6330347 -0.84754598 1
-0.57688498 1.760818 -0.87705392 11
-7.1632524 21.864296 -1.6088634 3
-1.3982244 4.2677813 -1.9995173 6
-1.4910134 4.5509996 -2.000345 7
-16.989601 51.857124 -1.266938 38
-1.597394 4.8757038 -2.0034745 8
-12.268661 37.447468 0 6
-1.7255416 5.2668467 -2.0172348 10
-1.8664855 5.6970477 -2.0257003 14
-13.877529 42.358189 2.0786457 21
-2.0239773 6.1777582 -2.028527 9
-17.53854 53.532642 3.9391482 28
-2.2200527 6.7762365 -2.044678 8
-17.486128 53.372669 5.2398481 28
-2.4492805 7.4759049 -2.0594409 12
-17.591627 53.694683 6.6075811 21
-2.7265673 8.3222637 -2.0750334 9
-17.512625 53.453545 7.9053106 24
-2.3808656 7.2670836 -1.6254536 0
-17.549704 53.566723 9.260972 60
-0.2538237 0.7821179 -0.48764855 6
-2.3576148 7.2646194 -1.2548127 5
-0.29010656 0.89391786 -0.52804643 5
-2.3005545 7.0887971 -1.0474168 9
-0.3979269 1.2261492 -0.6854285 6
-2.7360599 8.4307394 -1.0365288 1
-0.53017008 1.6336359 -0.86269194 14
-2.7686114 8.5310411 -0.83677053 0
-0.57084954 1.7589833 -0.87534261 11
-6.9987025 21.565403 -1.5854251 3
-1.3840451 4.2647176 -1.9962634 3
-1.4788685 4.556901 -2.001116 7
-16.849043 51.917679 -1.2672629 38
-1.5808969 4.8712854 -1.999837 8
-12.064644 37.175308 0 6
-1.7102469 5.2698574 -2.0165508 10
-1.8488144 5.6968312 -2.0237796 14
-2.0067179 6.1833858 -2.028527 9
-17.370504 53.524479 3.9349627 28
-2.1999345 6.7787523 -2.0435753 9
-17.325336 53.385303 5.2363181 28
-2.4283943 7.4827151 -2.0594409 12
-17.455719 53.787056 6.6129241 21
-2.699712 8.3187389 -2.0722666 8
-17.373068 53.532379 7.9097638 24
-2.2953439 7.072742 -1.5805447 1
-2.2951293 7.0720806 -1.4008608 3
-0.25374439 0.78937447 -0.49172929 6
-0.28654197 0.89140457 -0.52608711 5
-2.2771132 7.0838809 -1.0457467 12
-0.39342049 1.2238933 -0.6835506 6
-2.5568807 7.9542103 -0.97705966 2
-0.52669996 1.638513 -0.86448735 14
-2.7088225 8.4268866 -0.8258093 0
-0.56704175 1.7640125 -0.87705392 11
-6.8725123 21.379726 -1.5703577 6
-1.3704529 4.2633476 -1.9938231 3
-1.4644432 4.5557423 -1.9988034 8
-16.71195 51.989273 -1.2678665 38
-1.5684278 4.8792281 -2.001292 8
-1.6949489 5.2728233 -2.0158668 10
-12.299609 38.262901 0.93312037 11
-1.8328986 5.701972 -2.0237796 14
-12.529232 38.977242 1.9092684 14
-1.9894428 6.1889658 -2.028527 9
-13.28588 41.331097 3.0358016 14
-2.1809959 6.7848692 -2.0435753 10
-17.176798 53.435371 5.2365041 28
-2.4092655 7.4949937 -2.0609603 7
-2.3143673 7.1997747 -1.7919066 2
-17.219873 53.569374 7.9080939 24
-2.2163148 6.894743 -1.5393782 3
-2.2344713 6.9512258 -1.3756801 3
-0.25022069 0.78688902 -0.48968893 6
-2.2696104 7.1374259 -1.2304947 0
-0.28162661 0.88565379 -0.5221684 5
-2.2548473 7.0909996 -1.0457467 12
-0.3922492 1.2335376 -0.6882453 6
-2.5041885 7.875123 -0.9663738 2
-0.52154982 1.6401596 -0.86448735 14
-2.6370766 8.293026 -0.81187552 0
-0.56094939 1.7640625 -0.87619823 11
-6.774478 21.304245 -1.5632426 6
-1.3620355 4.2833028 -2.0011442 2
-1.4518014 4.5655966 -2.001116 10
-16.546116 52.033897 -1.2676808 38
-1.5542206 4.8876824 -2.0027471 11
-11.867467 37.320576 0 6
-1.6778059 5.2763309 -2.0151827 7
-11.812768 37.14856 0.90503532 20
-1.8132539 5.7022848 -2.0218589 12
-12.459392 39.182049 1.9173739 14
-1.9699898 6.1951852 -2.028527 10
-17.048347 53.613304 3.9339862 28
-2.1620004 6.799016 -2.0457804 11
-17.019705 53.523232 5.2398481 28
-2.3845346 7.4988379 -2.0599473 11
-17.11035 53.808292 6.6029348 42
-2.2374809 7.036386 -1.7494837 3
-17.053896 53.630756 7.9092073 24
-2.1744874 6.838285 -1.5252402 4
-17.085173 53.729115 9.2629175 30
-2.1733134 6.8345933 -1.35124 8
-0.24957243 0.79250711 -0.49274948 6
-2.220623 7.0514984 -1.2146069 0
-0.27862856 0.88477367 -0.52118868 5
-2.2302775 7.0821557 -1.0435199 12
-0.38721171 1.229575 -0.6854285 6
-2.45474 7.7949276 -0.95568794 0
-0.51589394 1.6382003 -0.86269194 13
-2.5786171 8.1882935 -0.80091423 0
-0.55547798 1.7638978 -0.87534261 11
-6.6897888 21.243153 -1.5573831 6
-0.60588461 1.923962 -0.89807451 3
-1.4373833 4.564352 -1.9988034 10
-16.404949 52.09325 -1.2680057 38
-1.5394464 4.8884497 -2.001292 12
-11.868333 37.687408 0 6
-1.6641942 5.2845812 -2.0165508 7
-11.790663 37.440773 0.91134864 10
-1.7984613 5.7109408 -2.0231395 14
-12.733385 40.434349 1.9769075 17
-1.9526819 6.2006621 -2.028527 9
-16.916542 53.717793 3.9381714 28
-2.1406956 6.7976923 -2.0435753 10
-2.3670716 7.5165401 -2.0629864 14
-16.97315 53.897549 6.6080456 21
-2.1757345 6.908957 -1.7162831 4
-16.908228 53.691395 7.9111557 24
-16.964706 53.870735 9.27913 30
-2.1270626 6.7544012 -1.334206 16
-0.2456844 0.78831714 -0.48968893 6
-2.1779642 6.9883423 -1.20261 0
-0.27807736 0.89225513 -0.52510738 5
-2.2151475 7.1076503 -1.0463034 5
-0.38408723 1.2324045 -0.68636745 6
-2.4115055 7.7376957 -0.94778973 0
-0.51103103 1.6397238 -0.86269194 14
-2.5092797 8.0514202 -0.78679466 0
-0.55185556 1.7707157 -0.8779096 11
-6.6023908 21.184813 -1.551663 5
-0.60289162 1.934473 -0.90214187 3
-1.4238342 4.5685968 -1.9988034 7
-16.255669 52.158875 -1.2684234 38
-1.5216094 4.8823237 -1.9969271 8
-11.717779 37.598347 0 6
-1.6457112 5.2805243 -2.0131307 7
-1.7792536 5.7090158 -2.0205784 14
-12.622869 40.502468 1.9783982 17
-1.9337076 6.2046061 -2.0279312 12
-2.120517 6.8040137 -2.0435753 10
-2.3441837 7.5216832 -2.0624797 14
-16.813158 53.94767 6.6080456 21
-16.742956 53.722416 7.9083724 24
-2.0795274 6.6724916 -1.3168017 10
-0.2438513 0.79068649 -0.4907091 6
-2.1391897 6.9363108 -1.1925585 2
-0.27388719 0.88807768 -0.5221684 5
-2.1993022 7.1312246 -1.0488085 1
-0.38042891 1.2335386 -0.68636745 6
-2.3621924 7.6593962 -0.93733615 0
-0.50774378 1.6463562 -0.86538506 13
-2.461905 7.9827137 -0.77936333 0
-0.54606658 1.7706178 -0.87705392 11
-6.515986 21.128048 -1.5460825 5
-0.59553391 1.9310155 -0.89970148 3
-9.4474869 30.633423 -1.4949554 14
-1.4113604 4.5763283 -2.000345 7
-14.816259 48.041637 -1.1672244 31
-1.5071166 4.886817 -1.9969271 8
-1.6300364 5.2853837 -2.0131307 8
-11.633686 37.722164 0.9165014 10
-1.7628652 5.7160807 -2.0212188 13
-12.137012 39.354191 1.9205416 14
-1.9158523 6.2121406 -2.028527 12
-2.0957873 6.7955785 -2.0391653 10
-2.0378962 6.6078672 -1.8102413 7
-16.655945 54.006809 6.6092072 21
-2.0939748 6.7897015 -1.5102705 42
-2.0382893 6.6091413 -1.3031005 10
-0.24228312 0.79296732 -0.49172929 6
-2.115833 6.9249005 -1.1896403 2
-0.27156126 0.88879168 -0.5221684 5
-2.189306 7.1653695 -1.0529836 0
-0.37616622 1.2311528 -0.68448955 6
-2.3020809 7.5344701 -0.92130733 0
-0.5008207 1.6391338 -0.86089653 14
-2.4235415 7.9319983 -0.77378982 0
-0.5419575 1.7737702 -0.8779096 11
-6.4280038 21.038185 -1.5382698 2
-0.58940876 1.9290732 -0.89807451 3
-9.3684235 30.661873 -1.4951417 14
-1.3966786 4.5711827 -1.9964908 8
-14.706211 48.131893 -1.1684778 16
-1.4964952 4.8978729 -1.999837 8
-14.694395 48.09322 0 16
-1.617292 5.2932277 -2.0144987 10
-11.572282 37.87487 0.9194724 10
-1.7495555 5.7261124 -2.0231395 14
-12.005919 39.294121 1.9160696 14
-1.9001403 6.2189608 -2.0291228 11
-16.475183 53.921558 3.942636 28
-1.9448496 6.3652897 -1.9085131 4
-16.511597 54.04073 6.6080456 21
-1.9761095 6.4675999 -1.6023868 25
-16.450756 53.841606 7.9122691 24
-2.079622 6.806386 -1.5127654 45
-2.0020275 6.5524268 -1.2908804 2
-0.23829827 0.78878438 -0.48866874 5
-2.0775158 6.8767266 -1.1802373 2
-0.26876771 0.88964045 -0.5221684 5
-2.1392915 7.0812087 -1.039623 1
-0.37229657 1.2323284 -0.68448955 6
-2.2462282 7.4351768 -0.90829849 0
-0.49670246 1.6441208 -0.86269194 14
-2.3657844 7.8309159 -0.7632001 0
-0.53585958 1.7737336 -0.87705392 10
-6.348031 21.012438 -1.5349214 2
-0.58757263 1.9449075 -0.90458232 3
-9.270895 30.687328 -1.4949554 73
-1.3833783 4.5790815 -1.9980326 7
-11.976547 39.64323 -0.96148396 7
-1.4811008 4.9025497 -1.999837 10
-16.230419 53.723854 0 21
-1.5984808 5.2910862 -2.0117624 10
-11.796714 39.04797 0.94704682 12
-1.7310098 5.7297668 -2.0224991 14
-1.8789371 6.2194166 -2.0273354 12
-14.541849 48.134563 3.5161448 47
-1.8925954 6.2646265 -1.8765391 8
-14.532758 48.104469 4.6882558 24
-1.8878956 6.2490702 -1.7089407 15
-16.352081 54.126564 6.612227 21
-1.9062535 6.3098359 -1.5618085 13
-1.9892064 6.5844159 -1.4620351 45
-16.338179 54.080544 9.281724 30
-1.9660859 6.5078855 -1.2808822 2
-0.23806621 0.79603922 -0.49274948 6
-2.0537806 6.8673749 -1.1776434 4
-0.26678193 0.89205801 -0.52314806 5
-2.1121316 7.0624876 -1.0360045 1
-0.36935979 1.2350551 -0.6854285 6
-2.1913064 7.32723 -0.89436036 0
-0.49364552 1.6506383 -0.86538506 14
-2.3016849 7.6963105 -0.74945211 0
-0.53090429 1.7752231 -0.87705392 11
-6.2687488 20.961269 -1.529899 2
-0.5795216 1.9377884 -0.9005149 3
-9.1903152 30.730324 -1.4957939 14
-1.3705857 4.5829268 -1.9980326 8
-11.775278 39.373852 -0.95414937 13
-1.4679383 4.9084516 -2.0005646 11
-12.525134 41.881199 0 9
-1.5831606 5.2937288 -2.0110784 11
-1.7150025 5.7345781 -2.0224991 15
-11.789706 39.422096 1.9188646 14
-1.8610148 6.2228103 -2.0267398 9
-1.8728905 6.2625198 -1.874334 3
-1.8643395 6.2339272 -1.7033693 7
-16.19973 54.168213 6.6117625 21
-1.8836071 6.2983537 -1.5576583 4
-16.130966 53.938278 7.9122691 24
-1.8878536 6.3125529 -1.4004931 22
-16.178045 54.095703 9.276536 60
-1.9310105 6.4568596 -1.2697731 2
-0.23458879 0.79348385 -0.4907091 5
-2.0193269 6.8302641 -1.1701859 2
-0.26496682 0.89623588 -0.52510738 6
-2.0871263 7.0595918 -1.0346128 1
-0.3659786 1.2379029 -0.68636745 6
-2.1525071 7.2807388 -0.88785595 2
-0.48643067 1.6453254 -0.86179423 14
-2.2543473 7.6252079 -0.741835 1
-0.52583718 1.7786157 -0.8779096 12
-7.0360618 23.799099 -1.7354015 4
-0.57239497 1.9360951 -0.89888799 3
-1.3540884 4.5801311 -1.9949492 8
-12.433243 42.054771 -1.0181648 19
-1.4498699 4.9041061 -1.9969271 9
-15.919837 53.847988 0 21
-1.567055 5.3004789 -2.0117624 9
-11.209929 37.916981 0.91798693 10
-1.6969784 5.7399378 -2.0224991 14
-11.927483 40.344063 1.9619076 16
-1.8425387 6.2322879 -2.0279312 9
-11.897218 40.241695 2.9343758 12
-1.8499367 6.2573109 -1.8710264 6
-15.845922 53.597973 5.214396 28
-16.025534 54.205502 6.6101365 21
-15.975471 54.036171 7.9192276 24
-1.8552562 6.2753038 -1.3909292 27
-1.905144 6.4440465 -1.26607 2
-0.23188895 0.79248488 -0.48968893 5
-1.9913776 6.8055706 -1.1649981 2
-0.262463 0.89697236 -0.52510738 6
-2.0746348 7.0901036 -1.0382314 0
-0.36103252 1.2338356 -0.6835506 6
-2.1321671 7.2867217 -0.88785595 2
-0.48133224 1.6449621 -0.86089653 14
-2.2140307 7.5664921 -0.73551834 0
-0.51934528 1.7748723 -0.87534261 11
-6.9891853 23.885674 -1.7402846 4
-0.56544685 1.9324254 -0.89644754 3
-9.0773687 31.022079 -1.5073466 61
-1.3407748 4.5821233 -1.9941783 10
-11.613297 39.688663 -0.96009129 14
-1.4356462 4.9063482 -1.9961997 7
-12.02813 41.106361 0 9
-1.5522472 5.3048339 -2.0117624 8
-11.210128 38.310825 0.92676061 10
-1.6804107 5.7428355 -2.0218589 13
-1.8235192 6.2319117 -2.026144 8
-15.837447 54.124775 3.9434729 28
-1.8324558 6.2624526 -1.8710264 4
-15.689475 53.61908 5.2121663 28
-1.8093833 6.1836014 -1.6866547 23
-15.883027 54.280548 6.613853 21
-1.8041158 6.1655998 -1.5221522 17
-15.815057 54.048256 7.9144959 24
-1.8267372 6.242909 -1.3826127 28
-1.8755503 6.409729 -1.2582936 2
-0.22871803 0.7898246 -0.48764855 5
-1.9652288 6.7864614 -1.1607829 2
-0.25850219 0.89267731 -0.5221684 6
-2.0575817 7.105381 -1.039623 0
-0.35905918 1.2399275 -0.68636745 6
-2.1189935 7.3174524 -0.89087588 0
-0.47723392 1.6480166 -0.86179423 14
-2.1862457 7.5496922 -0.73328894 0
-0.51488972 1.7780521 -0.87619823 11
-6.9357758 23.951092 -1.7436328 4
-0.56055653 1.9357518 -0.89726102 3
-1.3290005 4.5893946 -1.99572 9
-15.226441 52.580982 -1.2709303 19
-1.4240123 4.9174957 -1.9991096 9
-13.499321 46.616772 0 14
-1.5363817 5.3055377 -2.0103943 9
-11.070287 38.228668 0.92402172 10
-1.6659483 5.7529659 -2.0237796 14
-1.8050473 6.2333117 -2.0249524 11
-15.675696 54.132378 3.9408221 28
-1.8165648 6.2730851 -1.8726802 5
-15.547437 53.689465 5.2147675 28
-1.7732724 6.1235847 -1.6689271 24
-15.708179 54.244549 6.6040964 21
-1.7733582 6.1238809 -1.5106243 17
-15.659657 54.076992 7.9122691 24
-1.7995019 6.2141623 -1.3751279 28
-15.702068 54.22345 9.2745905 60
-1.8445232 6.3696327 -1.2494063 2
-0.2288809 0.79872864 -0.49274948 5
-1.9451824 6.7881284 -1.1601344 1
-0.25648868 0.89507186 -0.52314806 6
-0.35364944 1.234135 -0.68261164 6
-2.2993772 8.0241671 -0.97613049 7
-0.4726299 1.6493428 -0.86179423 14
-2.17064 7.5749111 -0.73514676 0
-0.50892651 1.7760074 -0.87448692 11
-6.8842535 24.024069 -1.7475392 4
-0.55263215 1.9285276 -0.89319366 3
-8.966157 31.289314 -1.5178745 31
-1.3166877 4.594862 -1.9964908 7
-12.040836 42.019062 -1.0148224 19
-1.4082217 4.9142895 -1.9961997 11
-15.495715 54.0756 0 21
-1.5225953 5.3134208 -2.0117624 10
-1.6472667 5.7484884 -2.0205784 15
-11.080567 38.667999 1.8758215 12
-1.7897372 6.2456694 -2.0273354 9
-15.505783 54.110733 3.9360788 28
-1.7910961 6.2504115 -1.8644111 5
-15.393607 53.719269 5.2134666 28
-1.7417748 6.0782943 -1.6552515 26
-15.522712 54.169807 6.589694 21
-1.7449923 6.0895219 -1.5009408 20
-15.522224 54.16811 7.9192276 24
-1.7729805 6.1871929 -1.3680589 20
-15.48263 54.029938 9.2340603 30
-1.8213146 6.355865 -1.2457033 3
-0.2241652 0.79112887 -0.48764855 5
-1.9175009 6.7672873 -1.1555951 2
-0.25383183 0.89582896 -0.52314806 6
-0.35143039 1.240276 -0.6854285 6
-0.46822137 1.6524574 -0.86269194 14
-2.1486983 7.5832338 -0.73533255 0
-0.50365472 1.7775097 -0.87448692 11
-6.8238201 24.082781 -1.7503295 4
-0.54840195 1.9354324 -0.89563411 3
-1.3025455 4.5969729 -1.99572 7
-11.254922 39.721123 -0.95851296 21
-1.3971897 4.9309931 -2.001292 9
-12.016373 42.408451 0 10
-1.5057987 5.3142986 -2.0103943 10
-10.685853 37.712753 0.91004884 10
-1.6322696 5.7606425 -2.0231395 14
-1.7701572 6.2472782 -2.026144 10
-15.353324 54.185295 3.9381714 28
-1.7227523 6.0799761 -1.81204 9
-15.243922 53.799194 5.2168112 28
-1.7142382 6.0499282 -1.6461344 28
-15.349463 54.171669 6.5843511 21
-1.7163057 6.0572248 -1.4917184 28
-15.361436 54.213924 7.9192276 24
-1.7466151 6.1641932 -1.3618215 3
-1.7960186 6.3385491 -1.2412597 3
-0.22585255 0.80673808 -0.49683022 6
-1.8972955 6.7770786 -1.1562436 1
-0.25336659 0.90501732 -0.52804643 6
-2.2676306 8.0999041 -1.1821363 31
-0.34753221 1.2413739 -0.6854285 6
-0.4625459 1.6521991 -0.86179423 14
-2.1270115 7.5976176 -0.7360757 0
-0.49904275 1.7825648 -0.87619823 11
-6.7615752 24.15213 -1.7538173 4
-0.54527432 1.9477024 -0.9005149 4
-10.156362 36.278198 -1.7568474 26
-1.2880974 4.6010423 -1.99572 7
-14.775062 52.776047 -1.2724158 19
-1.3801849 4.9299765 -1.9991096 10
-11.709466 41.82584 0 9
-1.4890959 5.3190031 -2.0103943 9
-10.599126 37.859737 0.91278768 10
-1.6131424 5.7620931 -2.0218589 15
-1.750522 6.2528086 -2.026144 9
-15.181945 54.22942 3.9378924 28
-1.6880941 6.0298181 -1.7955017 11
-15.090939 53.904346 5.2223845 28
-1.6842697 6.0161572 -1.6354978 28
-15.193126 54.26936 6.5903907 21
-1.6872995 6.0269794 -1.4829571 30
-1.7156383 6.1282048 -1.3526734 3
-1.774507 6.3384824 -1.2401488 2
-0.22130316 0.7990765 -0.49172929 5
-1.8767827 6.7766447 -1.1552708 1
-0.2513037 0.90740168 -0.52902609 6
-2.247117 8.1138391 -1.1832497 31
-0.34312165 1.2389358 -0.6835506 6
-2.2633853 8.1725807 -0.99169469 52
-0.45840731 1.6552067 -0.86269194 15
-2.0956883 7.5670643 -0.73254579 1
-0.49309799 1.780467 -0.87448692 11
-6.7079487 24.220909 -1.7574446 4
-0.53934556 1.9474567 -0.89970148 4
-10.036351 36.239029 -1.7535865 26
-1.273766 4.5992861 -1.9934075 9
-14.636164 52.847931 -1.2731586 19
-1.3664125 4.9338112 -1.9991096 10
-15.014304 54.21331 0 21
-1.4732335 5.3195181 -2.0090263 10
-1.5955281 5.761097 -2.0199382 14
-10.663957 38.505173 1.8632439 12
-1.7325445 6.2558327 -2.0255482 9
-14.827032 53.537113 3.8845985 55
-1.6599604 5.9937477 -1.7833737 14
-14.728283 53.180553 5.1482568 27
-1.6571348 5.9835448 -1.6253678 31
-15.044169 54.321148 6.5915523 21
-1.6637099 6.0072861 -1.4769626 31
-14.753478 53.271526 7.7686424 24
-1.6901642 6.1028066 -1.3460203 3
-15.061668 54.384331 9.271348 30
-1.7573243 6.3453074 -1.240519 3
-0.21756865 0.794752 -0.48866874 5
-1.8519779 6.7650518 -1.1523526 1
-0.24630833 0.89973462 -0.52412772 6
-2.2204182 8.11092 -1.1818579 29
-0.33757907 1.2331356 -0.67979485 6
-2.240176 8.1830921 -0.99215931 52
-0.45349419 1.6565596 -0.86269194 15
-2.0795369 7.5962973 -0.73477519 3
-0.48876768 1.7854095 -0.87619823 11
-6.6486974 24.28689 -1.7607929 8
-0.53163522 1.9419994 -0.89644754 4
-9.9134865 36.212769 -1.7508848 52
-1.2610887 4.6066051 -1.9949492 10
-14.479297 52.891125 -1.2731586 19
-1.3502918 4.9324532 -1.9969271 12
-10.853685 39.647205 0 22
-1.4594285 5.3311167 -2.0117624 9
-10.337604 37.762016 0.90898114 10
-1.577427 5.7621508 -2.0186577 13
-10.614546 38.773655 1.8747035 12
-1.7164961 6.270153 -2.028527 8
-14.583304 53.271053 3.8621368 81
-1.634555 5.9708319 -1.7751045 23
-14.560965 53.189445 5.1449127 27
-1.6317109 5.960443 -1.6177703 32
-14.608087 53.361576 6.4698262 61
-1.6402262 5.9915485 -1.4718903 33
-14.579665 53.257759 7.7602921 48
-1.6658509 6.0851521 -1.3410304 3
-14.612596 53.378048 9.0923672 88
-1.7275918 6.3106842 -1.2327427 1
-0.21669717 0.80033785 -0.49172929 6
-1.8299844 6.7587676 -1.1504072 1
-0.24607329 0.90883404 -0.52902609 6
-2.2013829 8.1304703 -1.1838064 31
-0.33459571 1.235778 -0.68073374 7
-2.218354 8.1931505 -0.99262387 55
-0.44746521 1.6526442 -0.85999882 14
-0.48141778 1.7780429 -0.87191993 11
-6.5766783 24.289955 -1.7596768 8
-0.52716511 1.9470036 -0.89807451 6
-9.8149328 36.249954 -1.7513505 52
-1.2491844 4.6136713 -1.9964908 8
-14.333631 52.939072 -1.2733442 19
-1.3369994 4.9380031 -1.9976547 12
-10.931097 40.372334 0 8
-1.4450268 5.3369851 -2.0124466 10
-1.5647963 5.7793355 -2.0231395 15
-10.50414 38.795433 1.8743309 12
-1.6984808 6.2730789 -2.0279312 12
-11.146409 41.167553 2.9823682 13
-1.6103382 5.9475374 -1.7668355 27
-14.426947 53.283722 5.1501145 56
-1.6115203 5.9519038 -1.6142248 53
-14.754935 54.495094 6.6022382 21
-1.6184021 5.9773207 -1.4672792 31
-14.436579 53.319294 7.7633538 48
-1.6427162 6.067121 -1.3360405 4
-1.7109896 6.3192782 -1.2334833 1
-0.21579619 0.80592495 -0.49478984 6
-1.8095719 6.758132 -1.1494344 1
-0.24037747 0.89772761 -0.5221684 6
-2.1802065 8.1423254 -1.1846415 31
-0.33114347 1.2367076 -0.68073374 7
-2.1964934 8.2031517 -0.99308848 55
-0.44377294 1.6573402 -0.86179423 15
-2.0417144 7.6251054 -0.73644727 3
-0.47832096 1.7863652 -0.87534261 12
-6.5201755 24.350624 -1.7627461 8
-0.52219856 1.9502331 -0.89888799 6
-9.7048817 36.244411 -1.7497667 26
-1.2362957 4.6171417 -1.9964908 7
-14.194533 53.011726 -1.2741333 19
-1.3227229 4.9399176 -1.9969271 9
-14.557364 54.366779 0 21
-1.4286592 5.3355536 -2.0103943 8
-10.100682 37.722591 0.90666008 10
-1.5466909 5.7763615 -2.0205784 14
-1.6784874 6.2685766 -2.0249524 9
-14.289169 53.365162 3.8631134 27
-1.5912369 5.9427257 -1.7640791 38
-14.279125 53.327648 5.150486 56
-1.5948932 5.9563808 -1.6142248 21
-1.5986838 5.9705377 -1.4645125 15
-14.287115 53.357487 7.7630754 48
-1.6877443 6.3031478 -1.2294099 1
-0.21282353 0.80493581 -0.49376968 6
-1.791863 6.7771397 -1.1517041 1
-0.24112156 0.91196394 -0.53000581 6
-2.1556284 8.1529646 -1.1851981 31
-0.32590243 1.2326201 -0.67791694 7
-2.1712193 8.2119322 -0.99332076 55
-0.43856406 1.6587261 -0.86179423 14
-2.0141864 7.6180058 -0.73514676 2
-0.47224447 1.7861114 -0.87448692 11
-6.4400735 24.357487 -1.7617695 8
-0.51606917 1.951864 -0.89888799 7
-9.582798 36.24382 -1.7482761 25
-1.2203692 4.6156502 -1.9941783 9
-14.038655 53.096653 -1.2751082 19
-1.3062447 4.9404464 -1.9954722 8
-14.398765 54.458649 0 21
-1.4128509 5.3436494 -2.0117624 8
-9.9821234 37.754139 0.90666008 10
-1.5280521 5.7793603 -2.0199382 14
-1.6578099 6.2701273 -2.023761 8
-14.120937 53.40786 3.8629739 27
-1.5705938 5.9402609 -1.761874 41
-14.11203 53.374168 5.150672 56
-1.5652925 5.9202104 -1.6030817 8
-1.5794215 5.973649 -1.4640514 8
-14.12043 53.405937 7.7636323 48
-1.602684 6.0616317 -1.332714 2
-1.6734604 6.32932 -1.2334833 1
-0.21028011 0.80382597 -0.49274948 6
-1.7701186 6.7665329 -1.1491102 1
-0.23696809 0.90584463 -0.52608711 6
-2.1352792 8.1624117 -1.1857548 32
-0.32401508 1.2385943 -0.68073374 7
-2.1502159 8.2195101 -0.9935531 52
-0.43422002 1.6598686 -0.86179423 14
-1.9942356 7.6232524 -0.73514676 1
-0.46756685 1.7873416 -0.87448692 11
-6.3788085 24.383915 -1.762467 8
-0.51049501 1.9514407 -0.89807451 7
-9.4686651 36.195335 -1.7447357 25
-1.2087485 4.620615 -1.9949492 8
-1.2942492 4.947454 -1.9969271 10
-14.257662 54.501965 0 21
-1.3974295 5.3418751 -2.0097103 8
-9.9298038 37.958103 0.91093081 10
-1.5119574 5.779675 -2.0186577 14
-10.134562 38.740818 1.8674365 12
-1.641389 6.2744455 -2.023761 8
-1.5511445 5.9294729 -1.7574638 43
-13.977793 53.432121 5.1527157 56
-1.542443 5.8962107 -1.5954841 14
-15.492414 59.221981 7.1585999 25
-1.5613146 5.9683495 -1.4617457 8
-13.994599 53.496372 7.7714257 48
-1.5803728 6.0412025 -1.3273082 4
-1.6509155 6.3108625 -1.2290395 1
-0.20732366 0.80281705 -0.49172929 5
-1.7453979 6.7586846 -1.1468406 1
-0.23324917 0.90320814 -0.52412772 6
-2.1106162 8.1729155 -1.1863115 32
-0.32056388 1.2413158 -0.68167269 6
-2.1283565 8.2416115 -0.99541152 5
-0.42945015 1.6629549 -0.86269194 14
-1.9702766 7.6294799 -0.73514676 1
-0.46330547 1.7940525 -0.87705392 11
-0.50527561 1.956573 -0.89970148 7
-9.3459158 36.190086 -1.7430587 25
-1.1937649 4.6226025 -1.9941783 8
-1.2773025 4.946084 -1.9947448 10
-10.803817 41.835499 0 9
-1.3820504 5.3516979 -2.0117624 8
-1.4971089 5.7972383 -2.0231395 14
-10.06076 38.958168 1.8763804 12
-1.6235787 6.2869654 -2.026144 8
-13.832055 53.56171 3.8682754 27
-1.5291438 5.9212866 -1.7536049 46
-13.810858 53.47963 5.1530871 56
-13.861388 53.675297 6.4828353 20
-1.5425568 5.9732251 -1.4617457 8
-13.823001 53.526649 7.7694774 48
-1.5628536 6.0518203 -1.3285557 6
-13.85166 53.637627 9.1014452 29
-1.633047 6.3236299 -1.2305208 1
-0.20593192 0.80672646 -0.49376968 6
-1.7299342 6.7769179 -1.1491102 1
-0.23029476 0.90216655 -0.52314806 6
-2.0887647 8.1826153 -1.1868682 32
-0.31884331 1.2490504 -0.6854285 5
-0.42392054 1.6606843 -0.86089653 15
-1.950441 7.6407409 -0.73570412 0
-0.45739949 1.7918363 -0.87534261 11
-0.49845412 1.9526654 -0.89726102 7
-9.2463007 36.221851 -1.7433382 51
-1.1817645 4.6294942 -1.99572 8
-1.2648678 4.9550471 -1.9969271 9
-9.6233978 37.699108 0 5
-1.36803 5.3591785 -2.0131307 8
-9.7380114 38.148098 0.91408753 10
-1.4795083 5.7958889 -2.0212188 14
-1.6050714 6.287775 -2.0249524 9
-13.702661 53.679386 3.8739955 27
-1.5097495 5.9143567 -1.7502972 46
-13.666879 53.539211 5.1551309 56
-1.5026418 5.8865128 -1.5904191 55
-13.726184 53.771538 6.4898043 20
-1.5407921 6.0359645 -1.4760404 7
-13.67984 53.589989 7.7730961 48
-1.5459477 6.0561609 -1.3285557 4
-1.6153818 6.3281655 -1.2305208 1
-0.20129253 0.7972554 -0.48764855 5
-1.7097708 6.7718563 -1.147489 1
-0.2287858 0.90614748 -0.52510738 6
-2.068305 8.1918964 -1.1874249 31
-0.3164368 1.2533051 -0.68730634 6
-2.2923508 9.0792694 -1.0950688 34
-0.42000893 1.6635213 -0.86179423 15
-1.929456 7.6419592 -0.73533255 0
-0.45093679 1.7860167 -0.87191993 11
-2.0371451 8.0684814 -0.58190852 25
-0.49468216 1.9592781 -0.89970148 7
-9.1377468 36.191696 -1.7407296 25
-1.1700922 4.6343617 -1.9964908 7
-1.2505231 4.9529223 -1.9947448 12
-9.5251579 37.726112 0 5
-1.3521546 5.355453 -2.0103943 9
-1.4629382 5.7942309 -2.0192981 14
-1.5886046 6.2919559 -2.0249524 12
-13.549383 53.66478 3.8703682 27
-1.4937899 5.9164252 -1.749746 56
-13.533004 53.599907 5.157546 56
-1.4853313 5.8829231 -1.5883931 80
-13.57807 53.778397 6.4863195 20
-1.5468996 6.1267753 -1.4972519 7
-13.547737 53.658264 7.7778277 48
-1.5238616 6.0355296 -1.32315 5
-1.5959224 6.3209391 -1.228299 1
-0.20211387 0.81123757 -0.49581003 6
-1.6918278 6.7905993 -1.1497587 1
-0.22635946 0.90855366 -0.52608711 6
-2.0420804 8.1964312 -1.1871465 29
-0.31377861 1.2594336 -0.6901232 6
-2.2647767 9.0902815 -1.0955334 35
-0.41434872 1.6630985 -0.86089653 15
-1.9054387 7.6479831 -0.73533255 1
-0.44663471 1.7926868 -0.87448692 11
-2.0127518 8.0787134 -0.58218753 26
-0.48764107 1.9572768 -0.89807451 7
-9.0099955 36.164005 -1.7380277 25
-1.1532965 4.6290612 -1.9926367 8
-12.117723 48.637695 -1.1637428 31
-1.2367584 4.9640574 -1.9976547 9
-9.6159496 38.596161 0 6
-1.3339603 5.3542037 -2.0083423 9
-9.6926317 38.90395 0.93084568 11
-1.4433537 5.7932825 -2.0173774 15
-9.4939413 38.106453 1.831381 11
-1.56883 6.2969155 -2.0249524 9
-13.39857 53.778713 3.8755302 27
-1.4747308 5.9192233 -1.7491946 61
-13.367918 53.655682 5.1588464 56
-1.4649713 5.8800507 -1.5863671 101
-13.409053 53.820789 6.4863195 20
-1.5276442 6.1316047 -1.4972519 8
-13.384365 53.721699 7.7808895 48
-1.5067848 6.0478802 -1.3248132 4
-1.5779573 6.33355 -1.2297802 2
-0.19997491 0.81353903 -0.49683022 6
-1.6657752 6.7767158 -1.1465163 1
-0.22225541 0.90418065 -0.52314806 6
-2.01963 8.2162695 -1.189095 22
-0.31024194 1.262128 -0.69106215 6
-2.2376301 9.1031389 -1.0962303 34
-0.40954849 1.6661274 -0.86179423 15
-1.8814024 7.6539316 -0.73533255 1
-0.44100061 1.7940811 -0.87448692 11
-1.9897431 8.0946836 -0.58288509 26
-0.48148972 1.9587991 -0.89807451 7
-8.889185 36.163033 -1.7366302 25
-1.1391886 4.6344538 -1.9934075 9
-10.156461 41.318569 -0.98785144 16
-1.2198231 4.962491 -1.9954722 9
-9.7223711 39.552605 0 7
-1.3175817 5.3601928 -2.0090263 8
-1.4265033 5.8033085 -2.0192981 14
-9.4395142 38.401882 1.8441448 11
-1.5485842 6.2999587 -2.0243568 13
-13.219076 53.777916 3.8724608 82
-1.4542922 5.9163589 -1.7469896 62
-13.201665 53.707085 5.1597753 56
-1.4460295 5.8827448 -1.5858606 102
-13.240378 53.864578 6.4865518 41
-1.5088382 6.1382637 -1.497713 9
-1.4845085 6.0392857 -1.3219025 5
-13.233868 53.838093 9.1085787 29
-1.5580521 6.3384762 -1.2297802 2
-0.19540688 0.8040303 -0.4907091 6
-1.647562 6.7791357 -1.1461921 1
-0.22194637 0.91323096 -0.52804643 6
-2.1964276 9.0375233 -1.3071138 28
-0.3077707 1.2663678 -0.69294006 6
-2.215667 9.1166868 -1.0971595 35
-0.40518519 1.6671939 -0.86179423 15
-1.8618283 7.6607656 -0.73551834 1
-0.43630221 1.7952296 -0.87448692 11
-1.9690156 8.1018038 -0.58302462 26
-0.47549698 1.9565021 -0.89644754 7
-8.7859879 36.151237 -1.7349532 50
-1.1261802 4.6338334 -1.9918658 8
-11.257539 46.320797 -1.1067371 26
-1.208147 4.9710984 -1.9976547 9
-9.6169004 39.570148 0 14
-1.3039881 5.3654504 -2.0097103 9
-1.4117528 5.8088641 -2.0199382 14
-10.21226 42.019844 2.0165966 18
-1.5329875 6.3077021 -2.0255482 11
-13.093789 53.876316 3.8770647 27
-1.436982 5.9126735 -1.7447845 61
-13.067128 53.766617 5.1621904 56
-1.4292527 5.8808703 -1.584341 102
-13.103068 53.914497 6.4884105 41
-1.4877075 6.1213908 -1.4926406 4
-13.082213 53.82869 7.7853432 48
-1.4682306 6.0412507 -1.3214867 6
-13.102197 53.910912 9.1150637 88
-1.5382036 6.3291645 -1.2271881 3
-0.19382299 0.80795211 -0.49274948 6
-1.62652 6.7801561 -1.1455436 1
-0.21882905 0.91218996 -0.52706677 6
-2.172837 9.0574818 -1.3090622 28
-0.30195227 1.2586895 -0.6882453 9
-2.1918511 9.1367426 -1.0987856 35
-0.39981985 1.6666509 -0.86089653 14
-1.8395548 7.6681924 -0.73570412 1
-0.42970866 1.7912426 -0.87191993 11
-1.9454339 8.1095505 -0.5831641 26
-0.46841118 1.9525743 -0.89400715 7
-8.6744919 36.15966 -1.7341148 25
-1.1119958 4.6353598 -1.9910949 7
-9.9432611 41.448532 -0.98961544 8
-1.1907847 4.9637918 -1.9932898 8
-9.0963507 37.918182 0 5
-1.2885011 5.3711233 -2.0103943 10
-8.8938036 37.07386 0.88516688 9
-1.3945115 5.8130274 -2.0199382 14
-1.5133747 6.3085093 -2.0243568 9
-1.4185356 5.9131722 -1.7436819 62
-12.910794 53.818707 5.1634908 56
-1.4117976 5.8850851 -1.584341 101
-12.954165 53.9995 6.4939857 20
-1.4681765 6.120101 -1.4912573 8
-12.927064 53.886528 7.7881269 48
-1.4480177 6.0360684 -1.3194076 6
-1.5162085 6.320322 -1.2245959 2
-12.919637 53.855568 10.434802 27
-0.19063225 0.80517572 -0.4907091 6
-1.607305 6.7887931 -1.1461921 1
-0.21491644 0.90774506 -0.52412772 6
-2.1482348 9.0735245 -1.3104539 26
-0.29821634 1.2595799 -0.6882453 6
-2.1674783 9.1548033 -1.1001794 35
-0.39446127 1.6660907 -0.85999882 15
-1.8167946 7.6736169 -0.73570412 1
-0.42480853 1.7942687 -0.87277561 11
-1.9232025 8.1230526 -0.58372217 29
-0.46261573 1.9539554 -0.89400715 8
-8.5565796 36.140526 -1.7319719 25
-1.099088 4.6422305 -1.9926367 8
-11.005041 46.482121 -1.1090118 13
-1.1773393 4.9727416 -1.9954722 8
-9.1561365 38.672882 0 6
-1.272559 5.3749223 -2.0103943 9
-9.0781221 38.343372 0.91483027 10
-1.3781308 5.820827 -2.0212188 10
-1.4964098 6.3204036 -2.0267398 10
-12.779367 53.976364 3.8787389 27
-1.4014275 5.9192257 -1.7442331 101
-12.749678 53.850964 5.1629338 56
-1.3934386 5.8854828 -1.583328 101
-12.807618 54.095688 6.5009546 20
-1.4177291 5.9880791 -1.4580568 7
-12.773967 53.953552 7.7923021 48
-1.4310035 6.0441456 -1.3202392 6
-1.4942794 6.3114052 -1.2220038 1
-0.18813172 0.80399704 -0.48968893 6
-1.5886272 6.7891345 -1.1455436 1
-0.21253923 0.90830457 -0.52412772 6
-2.1262782 9.086832 -1.3115673 26
-0.29612479 1.2655146 -0.69106215 7
-2.1448615 9.1662493 -1.1008763 34
-0.39050531 1.6688579 -0.86089653 14
-1.7935231 7.6647739 -0.73440361 1
-0.42010969 1.7953748 -0.87277561 11
-1.9042027 8.1377726 -0.58441973 38
-0.45999643 1.9658341 -0.89888799 8
-8.4491892 36.108334 -1.7293632 25
-1.0877718 4.6486859 -1.9941783 8
-8.7098398 37.222248 -0.88753438 21
-1.1651655 4.979435 -1.9969271 10
-12.824263 54.805584 0 21
-1.2584832 5.3782358 -2.0103943 7
-1.3611604 5.8170352 -2.0186577 16
-1.4781179 6.3168635 -2.0243568 13
-12.650743 54.06403 3.8826454 27
-1.3846122 5.9172587 -1.7425793 101
-12.614552 53.909363 5.165349 28
-1.3762623 5.8815746 -1.581302 102
-12.667311 54.134834 6.5016518 20
-1.3998305 5.9822955 -1.4557512 9
-12.641247 54.023453 7.7975907 48
-1.4138378 6.0421567 -1.3189918 6
-1.4773033 6.3133817 -1.2216336 1
-0.18729328 0.81125629 -0.49376968 6
-1.5711403 6.805356 -1.147489 1
-0.21062776 0.91232908 -0.52608711 6
-2.1010897 9.1008196 -1.3126807 26
-0.29276586 1.2681082 -0.6920011 7
-2.1131866 9.1532173 -1.0985533 31
-0.38635609 1.6734921 -0.86269194 15
-1.7779406 7.701107 -0.73737615 1
-0.41478088 1.7966133 -0.87277561 11
-1.8809466 8.147275 -0.58469874 38
-0.45292863 1.9618495 -0.89644754 8
-8.341568 36.131298 -1.72927 25
-1.0731438 4.6482968 -1.9926367 9
-8.6074572 37.282993 -0.88836992 15
-1.1491289 4.9774241 -1.9947448 11
-8.6111259 37.298885 0 11
-1.2416745 5.3782835 -2.0090263 9
-9.5353556 41.302162 0.98413771 14
-1.3434687 5.8192019 -2.0180175 15
-1.4606574 6.3268023 -2.026144 10
-12.474118 54.031345 3.8776228 27
-1.3666167 5.9194674 -1.7420281 101
-12.465742 53.995064 5.1699934 28
-1.3609815 5.8950586 -1.5838345 103
-12.505293 54.166374 6.5009546 20
-12.478228 54.049141 7.7959204 48
-1.3941438 6.0387006 -1.3173285 5
-1.4576803 6.3139071 -1.2208929 1
-0.18335742 0.80509925 -0.48968893 6
-1.5478737 6.7965178 -1.1452193 1
-0.20714553 0.90954983 -0.52412772 6
-2.0740778 9.1070137 -1.3126807 24
-0.28704137 1.2603624 -0.68730634 7
-2.0895481 9.174942 -1.1004118 34
-0.38138902 1.674631 -0.86269194 15
-1.7564098 7.712173 -0.73793352 1
-0.40944839 1.7978362 -0.87277561 11
-1.8580941 8.1586561 -0.58511728 38
-0.44710574 1.9631847 -0.89644754 8
-8.232996 36.150047 -1.7289906 25
-1.0597571 4.6532598 -1.9934075 8
-9.0890923 39.909054 -0.95029634 13
-1.1347693 4.9826283 -1.9954722 11
-8.4964237 37.306721 0 22
-1.2265462 5.3856087 -2.0103943 8
-1.3270384 5.8268576 -2.0192981 14
-9.3864498 41.214714 1.9712243 16
-1.441031 6.3273849 -2.0249524 9
-12.327484 54.128422 3.8819478 27
-1.3477666 5.9178729 -1.7403742 101
-12.301501 54.014336 5.1683216 28
-1.341766 5.8915248 -1.5818086 104
-1.3634421 5.986702 -1.454829 17
-12.320885 54.099445 7.7978687 48
-1.3757862 6.0409031 -1.3169127 3
-1.4433047 6.337368 -1.2245959 1
-0.18134485 0.80731815 -0.4907091 6
-1.529864 6.8107085 -1.1468406 1
-0.20521021 0.91356289 -0.52608711 6
-2.0474818 9.1150599 -1.3129591 24
-0.28446162 1.2663773 -0.6901232 7
-2.0636225 9.1869154 -1.1011087 31
-0.37641862 1.6757553 -0.86269194 15
-1.7348289 7.7231793 -0.73849088 1
-0.40292376 1.7937517 -0.87020862 11
-1.8347533 8.168026 -0.58539635 40
-0.44047803 1.9609374 -0.89482063 8
-8.1178198 36.139229 -1.7273135 25
-1.0471594 4.6617851 -1.99572 10
-12.398335 55.195396 -1.313406 20
-1.1199806 4.9859734 -1.9954722 8
-8.4076118 37.429337 0 5
-1.2097375 5.3855572 -2.0090263 9
-8.3882561 37.343166 0.88860208 29
-1.3089134 5.8270721 -2.0180175 14
-1.4230878 6.3353581 -2.026144 9
-12.167702 54.168655 3.8822267 27
-1.3310448 5.9255972 -1.7414768 62
-12.14642 54.073914 5.1705508 28
-1.3259758 5.9030309 -1.5838345 107
-12.230664 54.448952 6.5260434 20
-1.3460997 5.9926195 -1.4552901 26
-12.164655 54.155087 7.8006525 48
-1.3604289 6.0564108 -1.3194076 3
-1.4188951 6.3166933 -1.219782 1
-12.175189 54.201984 10.466648 27
-0.18006481 0.81289124 -0.49376968 6
-1.5109299 6.8209982 -1.1478132 1
-0.20212163 0.91246539 -0.52510738 6
-1.8520945 8.3611641 -1.2035689 8
-0.28032103 1.2654917 -0.68918425 7
-2.0359259 9.1910591 -1.1008763 31
-0.37067187 1.6733749 -0.86089653 15
-1.7119062 7.7282929 -0.73849088 1
-0.39838171 1.7984692 -0.87191993 11
-1.8113731 8.17733 -0.58567536 38
-0.43544817 1.9658033 -0.89644754 8
-7.9984589 36.10854 -1.7247049 24
-1.0297309 4.6486554 -1.9887824 12
-8.8313522 39.868584 -0.94806808 19
-1.1055849 4.9910932 -1.9961997 9
-9.0292397 40.761936 0 8
-1.19294 5.3854527 -2.0076582 10
-8.282177 37.389366 0.88911271 19
-1.2928478 5.8364797 -2.0199382 15
-8.2905378 37.427109 1.7876856 10
-1.4038713 6.3376889 -2.0255482 12
-12.009516 54.216206 3.8830638 27
-1.3130416 5.9276433 -1.7409256 58
-11.984204 54.101936 5.1698074 28
-1.3072 5.9012718 -1.5823151 105
-12.071635 54.496635 6.5274372 20
-1.3337849 6.0212879 -1.4612846 30
-12.004349 54.192875 7.8009305 48
-1.3403378 6.0508709 -1.3173285 3
-1.4035474 6.3362265 -1.2227445 1
-12.027066 54.295437 10.477757 27
-0.17728508 0.81174129 -0.49274948 6
-1.486474 6.80617 -1.1445708 1
-0.19904137 0.91135758 -0.52412772 6
-1.8200943 8.3337288 -1.198837 18
-0.27844897 1.2749439 -0.69387895 7
-2.0103419 9.2048216 -1.1018056 32
-0.3653239 1.6727213 -0.85999882 15
-1.6885434 7.7313924 -0.73830509 0
-0.39227238 1.7961112 -0.87020862 11
-1.7892311 8.1924143 -0.58637291 35
-0.42961359 1.9670867 -0.89644754 8
-7.8814831 36.087219 -1.7225621 24
-1.0182962 4.6625085 -1.9934075 11
-12.076982 55.297298 -1.3141023 20
-1.0899761 4.9907117 -1.9947448 8
-8.4507885 38.69392 0 6
-1.1793619 5.3999853 -2.0117624 8
-1.274312 5.8347363 -2.0180175 14
-8.1760426 37.435928 1.7869403 43
-1.3846534 6.3399611 -2.0249524 10
-11.852006 54.267193 3.8841801 27
-1.2929869 5.9202437 -1.7376179 36
-11.781564 53.944653 5.1514149 28
-1.2888591 5.9013443 -1.581302 105
