# .PCD v0.7 - Point Cloud Data file format
VERSION 0.7
FIELDS x y z intensity
SIZE 4 4 4 4
TYPE F F F F
COUNT 1 1 1 1
WIDTH 1384
HEIGHT 1
VIEWPOINT 0 0 0 1 0 0 0
POINTS 1384
DATA ascii
5.5272489 -9.2025251 -1.2553568 4
1.8257073 -3.0396888 -1.7810414 13
5.5018907 -9.160305 -0.99691623 1
1.9313536 -3.2155831 -1.7754993 13
5.5133495 -9.1793833 -0.74876601 1
2.0527122 -3.4176378 -1.7749987 17
2.177896 -3.626061 -1.7667788 18
2.3050492 -3.8377633 -1.7481297 18
17.45472 -29.061018 0 8
2.4617622 -4.0986805 -1.7401985 24
2.63799 -4.3920889 -1.7311927 35
2.8212967 -4.6972828 -1.7098011 17
3.0320182 -5.048121 -1.6885544 23
3.287482 -5.4734526 -1.6714596 59
3.5652332 -5.9358912 -1.6406597 36
3.9082224 -6.5069466 -1.6133947 31
4.3029046 -7.1640682 -1.5745335 29
0.74672335 -1.2511501 -0.86409694 2
4.8518081 -8.129303 -1.5553842 21
1.6361729 -2.741441 -1.7937905 5
5.5561647 -9.3094673 -1.5236671 8
1.7303755 -2.8992794 -1.7952592 11
5.5035653 -9.2213354 -1.2558213 6
1.8190436 -3.0478446 -1.7828368 12
5.4783297 -9.1790533 -0.99728781 1
1.9205135 -3.2178595 -1.7737881 10
5.4805369 -9.1827517 -0.74778938 1
2.0403512 -3.4186499 -1.7725583 14
2.1639783 -3.6257899 -1.7636954 18
2.2924137 -3.8409858 -1.7466748 21
17.392973 -29.142279 0 4
2.4503069 -4.1055388 -1.7401985 25
2.6218305 -4.3929305 -1.7286317 33
2.8022976 -4.6953063 -1.7062266 16
3.0238209 -5.0664735 -1.6918621 25
3.2682183 -5.475966 -1.6694336 56
3.5486434 -5.9458241 -1.6406597 39
3.8850236 -6.5094357 -1.6113156 32
4.2818747 -7.1743684 -1.5741631 28
0.73401946 -1.2386907 -0.85389507 2
4.8252392 -8.142808 -1.5550599 22
1.6328857 -2.7555678 -1.7996684 4
5.5289102 -9.3302841 -1.5242238 8
1.7221589 -2.9062204 -1.7961982 14
5.4705176 -9.2317438 -1.2548921 6
1.8112818 -3.0566194 -1.7846322 12
5.4413447 -9.1825132 -0.99580151 1
1.9103949 -3.223877 -1.7737881 10
5.4486103 -9.1947746 -0.74737084 1
2.0305326 -3.426615 -1.7733718 14
2.1525769 -3.6325703 -1.7636954 17
2.2812853 -3.8497713 -1.7474022 19
5.8666906 -9.9003038 0 1
2.438355 -4.1148334 -1.7408825 21
2.6118805 -4.4076657 -1.7311927 33
2.7933729 -4.7139421 -1.7098011 18
3.0049491 -5.0709863 -1.6902083 23
3.2529716 -5.4895353 -1.6704465 59
3.5329227 -5.9619656 -1.6420431 41
3.8655517 -6.5232916 -1.6117314 31
4.2583127 -7.1860938 -1.5737928 28
0.73579448 -1.2496299 -0.86001617 2
4.8024817 -8.156251 -1.5550599 24
1.6234149 -2.7571118 -1.7977091 4
5.500824 -9.3422737 -1.5236671 9
1.7104526 -2.9049313 -1.7924424 13
5.4487481 -9.2538319 -1.2558213 7
1.8027391 -3.0616655 -1.7846322 13
5.4177017 -9.2011042 -0.99617308 1
1.906888 -3.2385457 -1.7789221 7
5.4208879 -9.2065153 -0.74709183 1
2.0191016 -3.4291229 -1.7717448 15
2.1433609 -3.6401575 -1.7644663 13
2.271471 -3.8577323 -1.7481297 18
5.8166957 -9.8787317 0 2
2.4287617 -4.1248655 -1.7422506 21
2.5957162 -4.408411 -1.7286317 31
2.7763233 -4.7151432 -1.7074181 16
2.9888256 -5.0760446 -1.6891057 21
3.2356658 -5.4952636 -1.6694336 62
3.5083606 -5.9583921 -1.6383541 39
3.845335 -6.5306897 -1.6108998 31
4.2362347 -7.1945701 -1.5730522 28
0.73230195 -1.2516797 -0.86001617 2
4.7776933 -8.1662226 -1.5544115 21
0.780119 -1.3334105 -0.86799473 2
5.4747138 -9.3575983 -1.5236671 10
1.7023337 -2.9096966 -1.7924424 11
5.4208789 -9.2655821 -1.2553568 7
1.7896698 -3.0589747 -1.7801437 14
5.3899751 -9.21276 -0.99580151 1
1.8969239 -3.2422979 -1.7780664 8
5.3840747 -9.2026749 -0.74555719 1
2.0104406 -3.4363251 -1.7725583 15
2.1322556 -3.6445358 -1.7636954 16
2.2606895 -3.8640602 -1.7481297 15
5.7658572 -9.8552332 0 2
2.4153354 -4.1283875 -1.7408825 25
18.514633 -31.645948 0.85123265 8
2.5833957 -4.4156427 -1.7286317 31
2.7650735 -4.7261739 -1.7086096 22
2.980464 -5.0943274 -1.6924133 25
3.2193305 -5.5026078 -1.6689271 56
3.5015354 -5.9849639 -1.6429653 41
3.8260949 -6.5397139 -1.610484 32
4.2161269 -7.2063718 -1.5730522 29
0.73485553 -1.2641302 -0.86715746 2
4.7548699 -8.179533 -1.5544115 22
0.77551609 -1.3340763 -0.867015 3
5.4455752 -9.3677139 -1.522832 10
1.6950892 -2.9159658 -1.7933813 11
5.3919888 -9.2755318 -1.2546599 7
1.7838151 -3.0685959 -1.7828368 14
5.3612251 -9.2226105 -0.99524415 1
1.8851368 -3.2428939 -1.7754993 8
5.3533416 -9.2090502 -0.74485964 1
1.9990003 -3.4387667 -1.7709314 15
2.1220696 -3.650476 -1.7636954 16
2.2480175 -3.867137 -1.7466748 16
5.7383142 -9.8712959 0 2
2.4056864 -4.1383657 -1.7422506 24
18.454325 -31.745928 0.85253251 17
2.5710547 -4.4228396 -1.7286317 31
2.7509053 -4.7322264 -1.7080138 16
2.9623616 -5.0959821 -1.6902083 23
3.2049243 -5.5132489 -1.6694336 50
3.4828525 -5.9913535 -1.6420431 41
3.803885 -6.5436072 -1.6088207 32
4.1940112 -7.2147193 -1.5723116 28
0.72830093 -1.2619629 -0.86409694 2
4.7271771 -8.1910114 -1.553763 26
0.78003669 -1.3516079 -0.8768118 4
5.4161186 -9.3847752 -1.522832 10
1.683272 -2.9166882 -1.7905645 11
5.360836 -9.2889843 -1.2541952 7
1.774166 -3.0741847 -1.7828368 11
5.3262525 -9.2290602 -0.99412948 1
1.8749397 -3.2488003 -1.7754993 7
5.3213925 -9.2206383 -0.74444109 1
1.9918402 -3.4513595 -1.7741852 15
2.1105909 -3.6571245 -1.7636954 15
2.2367887 -3.8757937 -1.7474022 19
5.7012758 -9.8788805 0 3
2.3907948 -4.1426477 -1.7408825 24
2.5571473 -4.4308949 -1.7286317 35
2.7360251 -4.7408452 -1.7080138 17
2.9453764 -5.1035986 -1.689657 22
3.1885552 -5.5249662 -1.6699401 42
3.4610946 -5.9972091 -1.6406597 41
3.7813532 -6.5521364 -1.6079891 32
4.1693597 -7.2244549 -1.571571 26
0.73076391 -1.2744379 -0.87123823 1
4.7033033 -8.2024689 -1.5534388 21
0.78233051 -1.3643692 -0.88366956 5
5.3859496 -9.3929911 -1.5217187 10
1.6786342 -2.927505 -1.7943203 13
5.3319111 -9.298749 -1.2534983 7
1.7637963 -3.0760262 -1.7810414 14
5.3024406 -9.2473526 -0.99450105 1
1.8667593 -3.2555916 -1.776355 7
5.2946305 -9.2337322 -0.74430156 1
1.9776503 -3.4489834 -1.7701179 16
2.096698 -3.6566005 -1.760612 18
2.2250302 -3.8804088 -1.7466748 17
5.6716771 -9.8912935 0 3
2.3782821 -4.1476774 -1.7401985 22
2.5428791 -4.434731 -1.7273513 30
2.7218258 -4.7468109 -1.7074181 17
2.9339819 -5.116807 -1.6913108 23
3.1711893 -5.5304918 -1.6689271 42
3.4414296 -6.0017858 -1.6392764 38
3.7640147 -6.5643678 -1.6084049 34
4.1472139 -7.2326598 -1.5708303 28
0.72272307 -1.2691263 -0.86613727 1
4.6730857 -8.2060976 -1.5514933 22
0.77827895 -1.3666843 -0.88366956 7
5.3590364 -9.4106512 -1.521997 8
1.6690669 -2.9309382 -1.7933813 13
5.3003659 -9.3076229 -1.2525692 7
1.7564306 -3.084352 -1.7828368 14
5.2730088 -9.2595835 -0.99412948 1
1.8579861 -3.262687 -1.7772107 8
5.2652354 -9.2459335 -0.74402255 1
1.9701207 -3.459599 -1.7725583 15
2.087666 -3.6660128 -1.7621537 16
2.2135069 -3.8869934 -1.7466748 19
5.6294379 -9.8854847 0 2
2.3659654 -4.1547155 -1.7401985 24
16.861996 -29.610239 0.79111671 7
2.5306473 -4.443903 -1.7279915 31
2.7105641 -4.7598429 -1.7092053 17
2.9168844 -5.1221485 -1.6902083 23
3.1557236 -5.5415578 -1.6694336 48
3.4236069 -6.0119705 -1.6392764 39
3.741617 -6.5704069 -1.6071573 34
4.1237907 -7.2415171 -1.5700898 26
0.72488207 -1.2817466 -0.87327856 1
4.65066 -8.2233629 -1.5521418 21
0.77593714 -1.372023 -0.88562894 11
5.3320661 -9.4282341 -1.5222753 10
1.6586246 -2.9328034 -1.7915034 11
5.2697926 -9.318121 -1.2518723 8
1.7472715 -3.08955 -1.7828368 11
5.2445316 -9.2734547 -0.99394369 1
1.8456277 -3.2634647 -1.7746438 8
5.2367973 -9.259778 -0.74388301 1
1.9598472 -3.4654293 -1.7725583 15
2.077688 -3.6737971 -1.7629246 16
2.2019641 -3.893544 -1.7466748 20
5.5961442 -9.8951807 0 2
2.3564031 -4.166625 -1.7422506 30
2.5174508 -4.4513922 -1.7279915 30
2.6898506 -4.7562313 -1.7050351 16
2.9045131 -5.1358008 -1.6918621 23
3.1364102 -5.5458446 -1.667914 40
3.4067121 -6.0237961 -1.6397375 39
3.7269208 -6.589994 -1.6092365 34
4.1013188 -7.2520099 -1.5697194 28
0.72719842 -1.294264 -0.88041985 1
4.6247778 -8.2311563 -1.551169 24
0.77210271 -1.3741844 -0.88562894 10
5.3037763 -9.4396334 -1.5217187 10
1.6512933 -2.9389632 -1.7924424 12
5.245697 -9.3362646 -1.2523369 8
1.7386371 -3.0944173 -1.7828368 11
5.2195907 -9.2897997 -0.99412948 1
1.8365072 -3.2686059 -1.7746438 8
5.2109184 -9.2743654 -0.74388301 1
1.9474773 -3.46611 -1.7701179 16
2.0665169 -3.6779759 -1.7621537 18
2.1892576 -3.8964295 -1.7452198 19
5.5606523 -9.8968201 0 2
2.3410761 -4.166635 -1.7395145 24
2.5059385 -4.4600563 -1.7286317 29
2.676558 -4.7637243 -1.7050351 16
2.8882766 -5.1405396 -1.6907595 23
3.1218588 -5.5562682 -1.6684206 43
3.3898771 -6.0332856 -1.6397375 39
3.7085037 -6.6003757 -1.6092365 32
4.0820146 -7.2651482 -1.5700898 28
0.69675094 -1.2482233 -0.84777397 1
4.6008124 -8.2423153 -1.5508448 21
0.76741242 -1.3748127 -0.88464922 10
5.2764301 -9.4526787 -1.5214404 10
1.6413583 -2.940479 -1.7905645 11
5.2137957 -9.3404694 -1.2509431 8
1.7273757 -3.0945787 -1.7801437 12
5.1907163 -9.2991238 -0.99357212 1
1.8291346 -3.2768786 -1.776355 7
5.1801372 -9.2801704 -0.74318546 1
1.9404621 -3.476321 -1.7725583 15
2.0544388 -3.6805096 -1.760612 14
2.1792762 -3.9041545 -1.7459472 21
5.5251951 -9.8983393 0 2
2.3285155 -4.1715155 -1.7388304 28
2.4925506 -4.4653826 -1.7279915 31
2.6641753 -4.7728472 -1.7056308 16
2.872036 -5.1452279 -1.689657 23
3.1082165 -5.5683432 -1.6694336 46
3.3682733 -6.0342321 -1.6374319 39
3.6881504 -6.6072898 -1.6084049 33
4.0569205 -7.2679381 -1.5682383 26
0.718898 -1.2969263 -0.87939972 1
4.5772934 -8.2576561 -1.551169 26
0.76671118 -1.3831836 -0.88856792 10
5.2464399 -9.4648275 -1.5208837 10
1.6334827 -2.9468806 -1.7915034 13
5.186059 -9.3558979 -1.2509431 8
1.7207857 -3.1043797 -1.7828368 9
5.1650333 -9.3179665 -0.99394369 1
1.8194038 -3.2822914 -1.776355 7
5.1525798 -9.2954998 -0.74318546 1
1.9301392 -3.4820633 -1.7725583 15
2.0444043 -3.6882031 -1.7613829 14
2.168586 -3.9122329 -1.7466748 20
5.4958019 -9.9146891 0 2
2.3179505 -4.1816931 -1.7401985 21
2.4783719 -4.4711013 -1.7273513 33
2.6481512 -4.777391 -1.7044393 16
2.8576894 -5.1554079 -1.6902083 23
3.0916815 -5.5775409 -1.6694336 46
3.3512979 -6.0459013 -1.637893 36
3.6675816 -6.6164923 -1.6079891 31
4.0343857 -7.278224 -1.567868 22
0.71089917 -1.2915184 -0.87429875 1
4.5527725 -8.2712011 -1.551169 22
0.76092225 -1.3823974 -0.8866086 10
5.2221541 -9.4872932 -1.521997 9
1.6230288 -2.9486203 -1.7896256 12
5.1563611 -9.3677635 -1.2504784 8
1.7115673 -3.1094718 -1.7828368 13
5.126801 -9.3140612 -0.99190009 1
1.8114004 -3.2908425 -1.7780664 7
5.1240144 -9.3089991 -0.74304599 1
1.9206802 -3.4893754 -1.7733718 14
2.0316725 -3.6910191 -1.7598412 18
2.1569688 -3.9186499 -1.7466748 21
5.4625025 -9.9239435 0 2
2.3046267 -4.1869059 -1.7395145 21
2.4696634 -4.4867344 -1.7305524 31
2.6358061 -4.7885723 -1.7056308 18
2.8414533 -5.1621799 -1.689657 23
3.07232 -5.5816045 -1.667914 40
3.3342831 -6.0575233 -1.6383541 39
3.6498208 -6.6307731 -1.6088207 32
4.012773 -7.2901626 -1.567868 28
0.7048139 -1.2889707 -0.87123823 1
4.5277634 -8.2804193 -1.5505205 24
0.760405 -1.3906363 -0.89052731 10
5.189939 -9.4914122 -1.520327 10
1.6147884 -2.9531412 -1.7896256 9
5.1292281 -9.3803835 -1.2502462 8
1.7037348 -3.1158073 -1.7837346 14
5.0979052 -9.3231001 -0.99134272 1
1.7978673 -3.2879577 -1.7737881 7
5.0960846 -9.3197708 -0.74276692 2
1.9091754 -3.491519 -1.7717448 15
2.0240133 -3.7015359 -1.7621537 17
2.1451235 -3.9230235 -1.7459472 21
5.4328494 -9.9356489 0 2
2.2929256 -4.1933255 -1.7395145 21
2.4562154 -4.491951 -1.7299122 32
2.6224234 -4.7959142 -1.7056308 16
2.8214927 -5.1599736 -1.6863494 22
3.0576494 -5.5918598 -1.6684206 42
3.3173542 -6.0668106 -1.6383541 39
3.6294127 -6.6375065 -1.6079891 33
3.9914563 -7.2996154 -1.5674976 28
0.70404327 -1.2972262 -0.87531894 1
4.5017276 -8.2946024 -1.5505205 22
0.75187385 -1.3853559 -0.88562894 10
5.1600957 -9.5076704 -1.520327 10
1.6055028 -2.9581995 -1.7896256 12
5.0978384 -9.3929596 -1.2497815 8
1.6905278 -3.1148612 -1.7801437 13
5.0742898 -9.3495703 -0.99245739 1
1.7901158 -3.2983561 -1.776355 7
5.0696359 -9.3409948 -0.74318546 3
1.8955824 -3.4926822 -1.7693044 16
2.0114944 -3.7062542 -1.7613829 17
2.1327884 -3.9297433 -1.7459472 19
5.4006548 -9.9509106 0 2
2.280637 -4.2021599 -1.7401985 22
2.4393799 -4.4946494 -1.7279915 33
2.6091652 -4.8074851 -1.7068223 17
2.8089364 -5.175571 -1.6885544 23
3.0382211 -5.5980372 -1.6674075 46
3.3001351 -6.0806236 -1.6392764 41
3.611342 -6.6540337 -1.6092365 32
3.9666293 -7.3086638 -1.5667571 28
0.70753586 -1.3129386 -0.88450062 1
4.477097 -8.3079233 -1.5505205 21
0.75024164 -1.3921856 -0.88856792 10
5.1281047 -9.5159645 -1.5192136 10
1.5967187 -2.9629502 -1.7896256 10
5.0661769 -9.4010487 -1.2488524 8
1.6804305 -3.1182899 -1.7792461 13
5.0474715 -9.3663378 -0.99264318 1
1.7751762 -3.2941046 -1.771221 9
5.0390587 -9.3507271 -0.74276692 2
1.8878114 -3.5031164 -1.7717448 15
1.9987379 -3.708957 -1.7598412 19
2.1220031 -3.9376941 -1.7466748 20
5.3767991 -9.9774542 0 2
2.2690506 -4.2105627 -1.7408825 21
2.4215391 -4.4935279 -1.7247903 29
2.5957954 -4.8168864 -1.7074181 17
2.7944798 -5.185575 -1.6891057 23
3.0206802 -5.6053238 -1.666901 42
3.282079 -6.0903883 -1.6392764 43
3.588799 -6.6595531 -1.6079891 32
3.945859 -7.3221312 -1.5671273 22
0.70247197 -1.3117534 -0.88246024 1
4.4525366 -8.3143959 -1.5495479 24
0.74659431 -1.3941449 -0.88856792 10
5.1050444 -9.5328493 -1.5197703 9
1.5889562 -2.9671202 -1.7896256 9
5.0424857 -9.4160309 -1.2490846 8
1.6714174 -3.1211033 -1.7783483 13
5.0135322 -9.3619652 -0.99078536 1
1.7656927 -3.2971473 -1.7703655 11
5.0126777 -9.3603687 -0.74248791 2
1.8777713 -3.5064359 -1.7709314 15
5.0430417 -9.4170694 -0.49816319 0
1.9898922 -3.7158039 -1.760612 17
2.1116869 -3.9432359 -1.7466748 19
5.3610454 -10.01089 0 3
2.2562451 -4.2131748 -1.7395145 25
16.224169 -30.296024 0.7978943 7
2.4142392 -4.5082035 -1.7279915 33
2.5795705 -4.8169332 -1.7050351 16
2.7799869 -5.1911783 -1.6885544 23
3.0069087 -5.6149182 -1.6674075 46
3.2670419 -6.1006756 -1.6397375 47
3.5731993 -6.6723747 -1.6088207 31
3.927604 -7.3341689 -1.5674976 28
0.70826805 -1.3320585 -0.89470249 1
4.4297009 -8.3310556 -1.5501964 22
0.7449103 -1.4009725 -0.89150697 10
5.0776672 -9.5497036 -1.5200486 10
1.5818037 -2.9749401 -1.7915034 10
5.0145254 -9.4309511 -1.2490846 8
1.6655058 -3.1323607 -1.7819391 12
4.9857326 -9.3767996 -0.99078536 1
1.7559022 -3.3023715 -1.7703655 11
4.9801993 -9.3663931 -0.74179035 2
1.8665015 -3.5103788 -1.7701179 16
5.046968 -9.4919662 -0.50133085 0
1.9788585 -3.7216916 -1.760612 18
2.1017272 -3.9527738 -1.7481297 18
5.3313189 -10.026752 0 2
2.2446167 -4.2215104 -1.7401985 25
2.3990734 -4.512001 -1.726711 30
2.5688524 -4.8313088 -1.7074181 17
2.7645721 -5.1994038 -1.6885544 23
2.9893274 -5.622107 -1.666901 43
3.2443583 -6.1017504 -1.6374319 47
3.5533862 -6.6829476 -1.6088207 32
3.9058259 -7.3457899 -1.5674976 25
0.69547862 -1.3174201 -0.88348043 1
4.4058838 -8.3459072 -1.5505205 21
0.73423815 -1.3908409 -0.88366956 9
5.0493102 -9.5647268 -1.5200486 9
4.9828119 -9.4387608 -1.2481555 8
1.6545358 -3.1341276 -1.7801437 12
4.9616079 -9.3985949 -0.99152851 1
1.7511597 -3.3171587 -1.7754993 12
4.9542499 -9.3846569 -0.74206936 3
1.8569307 -3.5175171 -1.7709314 16
4.9982634 -9.4680309 -0.4992812 0
1.9721152 -3.7357068 -1.7644663 20
5.0490198 -9.5641766 -0.25109437 0
2.0847714 -3.9491074 -1.7437649 23
5.3108826 -10.060214 0 2
2.2320814 -4.2281513 -1.7401985 24
2.3883293 -4.5241261 -1.7286317 32
2.5527236 -4.8355327 -1.7062266 15
2.7491331 -5.2075834 -1.6885544 23
2.9744396 -5.6343737 -1.667914 50
3.2253313 -6.1096287 -1.6369708 47
3.5326285 -6.691731 -1.6084049 29
3.8830957 -7.3556085 -1.5671273 23
0.68940049 -1.3147866 -0.88041985 1
4.3798113 -8.3529348 -1.5495479 26
0.73197073 -1.3959743 -0.88562894 9
5.0198216 -9.5735273 -1.5192136 10
0.8356244 -1.5936568 -0.95678306 4
4.9573569 -9.4543982 -1.2483877 8
1.6457772 -3.1387358 -1.7801437 13
4.9233212 -9.3894873 -0.98911333 1
1.7376922 -3.3140309 -1.771221 11
4.9206119 -9.3843193 -0.74095327 2
1.8462523 -3.5210707 -1.7701179 15
4.9782987 -9.4943371 -0.49993336 0
1.9608184 -3.7395649 -1.7636954 17
2.0780609 -3.9631634 -1.7474022 20
5.288341 -10.085633 0 2
2.2193928 -4.2327037 -1.7395145 22
2.3730464 -4.5257435 -1.726711 36
2.540097 -4.8443332 -1.7068223 17
2.7327945 -5.2118349 -1.6874518 23
2.9577954 -5.6409445 -1.6674075 46
3.209161 -6.1203356 -1.6374319 47
3.5148365 -6.7033024 -1.6088207 31
3.865278 -7.3716455 -1.5682383 25
0.68923682 -1.324576 -0.88552082 2
4.3544593 -8.3684034 -1.5498722 22
0.7283864 -1.3998138 -0.8866086 9
4.9888067 -9.5874939 -1.5189352 9
0.82409263 -1.583742 -0.9492715 7
4.925797 -9.4664011 -1.2479231 8
1.6367334 -3.1454759 -1.7810414 13
4.8974757 -9.411974 -0.98985642 2
1.7306101 -3.3258882 -1.7746438 9
4.8938684 -9.4050417 -0.74137181 2
1.8309646 -3.5187495 -1.7660505 14
4.9346142 -9.483346 -0.49853584 2
1.9507643 -3.7489808 -1.7652371 16
5.000483 -9.6099329 -0.25151217 0
2.0647402 -3.9680197 -1.7466748 20
5.2649388 -10.118165 0 3
2.2060845 -4.2396555 -1.7395145 17
2.3605659 -4.5365381 -1.7279915 33
2.5213406 -4.8455148 -1.7044393 16
2.7172949 -5.2221003 -1.6880032 22
2.9427385 -5.6553578 -1.6689271 42
3.1881211 -6.1269345 -1.6365097 49
3.491051 -6.7091055 -1.6075732 31
3.8421001 -7.3837519 -1.5682383 25
0.68372464 -1.3235584 -0.88348043 2
4.3287048 -8.3795338 -1.5495479 22
0.72342962 -1.4004196 -0.88562894 9
4.9630651 -9.6075325 -1.5197703 10
4.8958645 -9.4774446 -1.2474585 8
1.6282136 -3.1519063 -1.7819391 13
4.8713565 -9.4300022 -0.990228 2
1.716586 -3.322978 -1.7703655 11
4.8641105 -9.4159756 -0.7410928 2
1.8263861 -3.5355296 -1.7717448 15
4.9137902 -9.512145 -0.4992812 3
1.9345503 -3.7449145 -1.760612 17
2.0521026 -3.9724731 -1.7459472 19
5.2413201 -10.14618 0 3
2.1926329 -4.2445126 -1.7388304 24
2.3444865 -4.5384717 -1.7260708 35
2.5051999 -4.8495817 -1.7032478 16
2.7009063 -5.2284312 -1.6874518 23
2.9232819 -5.6589074 -1.6674075 40
3.1681418 -6.1329088 -1.6355875 41
3.4756186 -6.7281246 -1.6096523 31
3.8165672 -7.3881345 -1.5667571 25
0.68048853 -1.3252251 -0.88348043 2
4.3073153 -8.3883295 -1.5492237 21
0.72159851 -1.4052852 -0.88758826 9
4.9368606 -9.6143456 -1.5189352 9
0.82599807 -1.6085993 -0.96147776 13
4.8699698 -9.4840784 -1.2467616 8
1.6196909 -3.1542854 -1.7810414 12
4.8473902 -9.4401054 -0.99004221 2
1.7125901 -3.3352029 -1.7746438 8
4.8410883 -9.4278326 -0.7410928 2
1.815238 -3.5351057 -1.7693044 13
4.890533 -9.5241232 -0.4992812 3
1.9304519 -3.7594805 -1.7652371 15
2.043241 -3.9791329 -1.7466748 20
5.2155991 -10.157177 0 2
2.1831136 -4.2515292 -1.7395145 27
2.3368521 -4.5509291 -1.7286317 33
2.4942148 -4.8573871 -1.7038436 16
2.6854882 -5.2298846 -1.685798 23
2.9094458 -5.6660333 -1.6674075 46
3.1540358 -6.1423626 -1.6360486 52
3.4591684 -6.7365971 -1.6096523 31
3.8011966 -7.4026833 -1.567868 22
0.68022674 -1.3350202 -0.88858134 2
4.2809415 -8.4018202 -1.5492237 22
0.71559697 -1.4044381 -0.88562894 9
4.9084301 -9.633337 -1.5194919 11
0.80570811 -1.5812912 -0.94363785 9
4.8419542 -9.5028706 -1.2472262 9
1.6113962 -3.1625431 -1.7828368 13
4.8149972 -9.4499645 -0.98948485 2
1.6996417 -3.3357346 -1.7720767 10
4.8087287 -9.4376612 -0.74067426 3
1.8032937 -3.5391631 -1.7684909 15
4.8587737 -9.5358801 -0.49909484 3
1.9136046 -3.7556605 -1.760612 17
2.03073 -3.9855323 -1.7466748 22
5.1972833 -10.200243 0 2
2.1705995 -4.2600412 -1.7401985 25
2.3199627 -4.5531831 -1.726711 32
2.4772091 -4.8617969 -1.7026521 15
2.6716633 -5.2434344 -1.6874518 21
2.8889959 -5.6699739 -1.6658881 43
3.1338398 -6.150507 -1.6355875 56
3.4362116 -6.7439446 -1.6088207 31
3.7761369 -7.4110861 -1.5671273 26
0.67804939 -1.3399843 -0.89062172 2
4.2565713 -8.4119816 -1.5488994 24
0.71482122 -1.4126542 -0.88954765 10
4.8797216 -9.6434717 -1.5189352 9
0.78693777 -1.5551733 -0.92673689 9
4.810914 -9.5074921 -1.2460647 8
1.6009446 -3.1638412 -1.7810414 11
4.7939839 -9.4740343 -0.99059957 2
1.6952171 -3.3501458 -1.7772107 7
4.7814541 -9.4492731 -0.74053472 3
1.7934035 -3.5441852 -1.7684909 16
4.8330278 -9.5511942 -0.49918801 3
1.9072756 -3.769223 -1.7644663 20
2.0179102 -3.9878628 -1.7452198 22
5.1769056 -10.230778 0 2
2.1595433 -4.2677631 -1.7408825 25
2.3063834 -4.5579534 -1.7260708 31
2.4670708 -4.8755097 -1.7050351 16
2.6578784 -5.2525902 -1.6880032 23
2.8740246 -5.6797457 -1.6663946 39
3.1184096 -6.1627073 -1.6365097 52
3.4164822 -6.7517686 -1.6084049 32
3.756314 -7.4233561 -1.5674976 26
0.67175418 -1.3373786 -0.8875612 2
4.2315936 -8.4245739 -1.5488994 22
0.70749617 -1.4085363 -0.88562894 9
4.8493094 -9.6543684 -1.5183785 9
0.77122325 -1.5354091 -0.91359168 10
4.7844667 -9.5252752 -1.2465293 8
1.5891436 -3.1637862 -1.7783483 11
4.7587023 -9.4739809 -0.98911333 2
1.682024 -3.3486993 -1.7737881 7
4.7551875 -9.4669838 -0.74081373 3
1.7869803 -3.5576541 -1.7725583 17
4.8055644 -9.567277 -0.4992812 4
1.8935987 -3.769918 -1.7621537 19
2.0043967 -3.9905031 -1.7437649 23
5.1581974 -10.269326 0 1
2.1443403 -4.2691135 -1.7388304 24
2.2928495 -4.5647764 -1.7260708 28
2.4500232 -4.8776898 -1.7032478 16
2.6396933 -5.2552991 -1.6863494 22
2.8562915 -5.6865191 -1.6658881 42
3.1001108 -6.1719327 -1.6365097 49
3.3981905 -6.7653723 -1.6092365 31
3.7360363 -7.4379811 -1.5682383 25
0.67061859 -1.3456409 -0.89164191 2
4.204226 -8.43606 -1.5485752 24
0.7046231 -1.4138732 -0.88758826 9
4.8207221 -9.6731005 -1.5189352 9
0.75930685 -1.5235999 -0.90514117 12
4.7536325 -9.5384808 -1.246297 9
1.5783993 -3.1671636 -1.7774507 10
4.7324681 -9.4960127 -0.98985642 2
1.6723018 -3.3555849 -1.7746438 12
4.7200832 -9.4711618 -0.73997664 3
1.770905 -3.5534389 -1.7676774 16
4.7737017 -9.5787506 -0.49909484 5
1.8792763 -3.7708931 -1.7598412 18
1.9935122 -4.0001149 -1.7452198 20
5.1401834 -10.314121 0 1
2.130918 -4.2758288 -1.7388304 22
15.054308 -30.207472 0.7835964 6
2.2784975 -4.5719571 -1.7260708 27
2.4329844 -4.8819451 -1.7020563 16
2.6274579 -5.2721696 -1.6891057 23
2.8410017 -5.7006593 -1.6674075 40
3.0789697 -6.1781578 -1.6355875 39
3.3734293 -6.769011 -1.6075732 33
3.7108974 -7.4461632 -1.5674976 22
0.67372519 -1.3613843 -0.90082359 3
4.1762748 -8.4389229 -1.5469539 20
0.69989872 -1.4142727 -0.8866086 9
4.791934 -9.6829748 -1.5183785 10
0.75426596 -1.5241317 -0.90420222 13
4.7269778 -9.5517187 -1.246297 8
1.5695488 -3.1715589 -1.7774507 10
4.7041655 -9.5056219 -0.98948485 2
1.6597176 -3.3537612 -1.771221 10
4.6945014 -9.4860945 -0.74011618 3
1.7650269 -3.5665581 -1.7717448 14
4.7371869 -9.5723486 -0.49807003 11
1.8711944 -3.7810886 -1.7621537 17
1.9815077 -4.0039968 -1.7444923 22
5.1370864 -10.380418 0 0
2.1189692 -4.2817631 -1.7388304 21
2.2657213 -4.5783019 -1.7260708 30
2.422729 -4.8955646 -1.7044393 17
2.6101668 -5.2743168 -1.6874518 20
2.8233552 -5.7051024 -1.6663946 42
3.0642946 -6.1919646 -1.6369708 41
3.3553813 -6.780158 -1.6079891 31
3.6883459 -7.4529738 -1.5667571 20
0.67143828 -1.3663481 -0.90286398 2
4.155304 -8.4558668 -1.5479267 24
0.69363958 -1.4115269 -0.88366956 9
4.765749 -9.6980953 -1.5186568 10
0.74767041 -1.5214773 -0.90138543 14
4.6985335 -9.5613155 -1.2458324 8
1.5622625 -3.1791375 -1.7792461 11
4.6758461 -9.5151472 -0.98911333 2
1.6519401 -3.3616276 -1.7729324 8
4.6732726 -9.5099106 -0.74095327 3
1.752643 -3.5665536 -1.7693044 15
4.7157245 -9.5962973 -0.49862903 13
1.8590004 -3.7829864 -1.760612 16
1.9694971 -4.0078425 -1.7437649 22
2.1078329 -4.28935 -1.7395145 21
2.2537632 -4.5863118 -1.726711 27
2.4065225 -4.8971705 -1.7026521 16
2.5988197 -5.288487 -1.689657 23
2.8091192 -5.7164373 -1.6674075 44
3.0418415 -6.1900177 -1.634204 38
3.3372972 -6.7912574 -1.6084049 31
3.6666522 -7.4614806 -1.5663867 28
0.66813534 -1.3698806 -0.90388411 1
4.1293316 -8.4663839 -1.5476024 21
0.69174153 -1.4182802 -0.8866086 9
4.7369533 -9.7121935 -1.5186568 9
0.74470103 -1.5268633 -0.90326327 14
4.6675315 -9.5698586 -1.2451355 7
1.5543898 -3.1869714 -1.7810414 9
4.6458473 -9.5253992 -0.98874176 2
1.6372041 -3.3567657 -1.7677984 10
4.6441612 -9.5219412 -0.74081373 4
1.742854 -3.5733802 -1.7701179 15
4.689858 -9.615634 -0.49890852 13
1.8469589 -3.7868268 -1.7598412 19
1.9575969 -4.0136685 -1.7437649 18
2.0950971 -4.2955856 -1.7395145 24
2.2393148 -4.5912757 -1.7260708 28
2.3936558 -4.9077215 -1.7038436 17
2.5772176 -5.2840791 -1.685798 23
2.788753 -5.7177911 -1.6653816 42
3.0251684 -6.2025142 -1.6351262 39
3.3154173 -6.7976127 -1.6075732 31
3.6470821 -7.4776263 -1.5674976 23
0.66008228 -1.3642303 -0.89878321 1
4.1044326 -8.4828682 -1.5482509 24
0.68804187 -1.422016 -0.88758826 9
4.7055554 -9.7252445 -1.5183785 10
0.74143887 -1.5323746 -0.90514117 14
4.6357136 -9.5808983 -1.2446709 7
1.5428132 -3.1886215 -1.7792461 9
4.6167669 -9.5417395 -0.98892754 2
1.6297997 -3.3684015 -1.771221 11
4.6150932 -9.5382805 -0.74095327 5
1.7300278 -3.5755486 -1.7684909 16
4.6570163 -9.6249256 -0.49862903 13
1.8350531 -3.7926106 -1.7598412 18
1.9482236 -4.0265069 -1.7466748 19
2.0799546 -4.2987628 -1.7381464 24
2.2248797 -4.5982881 -1.7260708 27
2.3790574 -4.9169359 -1.7044393 17
2.5614417 -5.29388 -1.6863494 23
2.7707765 -5.7265244 -1.6653816 44
3.0039723 -6.2084837 -1.634204 36
3.2957497 -6.8115168 -1.6084049 31
3.6192925 -7.4802012 -1.5656462 28
0.6503107 -1.3536636 -0.89062172 2
4.0790186 -8.4907389 -1.5476024 26
0.68255806 -1.4207885 -0.88562894 9
4.6783791 -9.7383471 -1.5183785 10
0.73562741 -1.5312556 -0.90326327 14
4.610661 -9.5973873 -1.2451355 8
1.533129 -3.1913064 -1.7783483 9
4.5901036 -9.554595 -0.98892754 2
1.6164731 -3.3647923 -1.7669427 11
4.5858474 -9.5457354 -0.74053472 6
1.7200363 -3.5803659 -1.7684909 16
4.6292553 -9.6360912 -0.49853584 15
1.824455 -3.7977202 -1.7598412 19
1.933745 -4.0252142 -1.7437649 20
2.0695698 -4.3079424 -1.7395145 25
2.2103894 -4.6010675 -1.7247903 28
2.3636639 -4.9201183 -1.7032478 16
2.5466485 -5.3010125 -1.6863494 22
2.7556119 -5.7359834 -1.6658881 47
2.9899943 -6.223865 -1.6360486 34
3.2758684 -6.8189306 -1.6079891 32
3.6000919 -7.4938221 -1.5663867 26
0.64652807 -1.3554742 -0.89062172 2
4.0544424 -8.5003157 -1.5472782 22
0.67858785 -1.422689 -0.88562894 9
4.6486087 -9.7460108 -1.5175434 10
0.73210871 -1.5348978 -0.90420222 13
4.5812769 -9.604846 -1.2444386 7
0.83019882 -1.740548 -0.96862084 2
4.5616894 -9.5637808 -0.98855597 2
1.61174 -3.3790832 -1.7720767 12
4.5591726 -9.5585041 -0.74053472 10
1.7155373 -3.5966988 -1.7741852 14
4.5997477 -9.6435719 -0.49825636 13
1.8170207 -3.809463 -1.7629246 20
1.9224969 -4.0305986 -1.7437649 23
2.0591497 -4.3170972 -1.7408825 28
2.1983478 -4.608932 -1.7254306 30
2.3482714 -4.9232531 -1.7020563 16
2.5318353 -5.3081031 -1.6863494 23
2.7387505 -5.7419095 -1.6653816 47
2.9726024 -6.2321901 -1.6360486 39
3.254287 -6.8227549 -1.6067415 29
3.5825357 -7.510942 -1.567868 26
0.64029551 -1.352722 -0.8875612 1
4.0283594 -8.5105238 -1.5469539 24
0.67361766 -1.4231201 -0.88464922 10
4.6213655 -9.76334 -1.5181001 10
0.72906232 -1.5402554 -0.90608013 13
4.5519085 -9.616601 -1.2442063 8
0.82426625 -1.7413883 -0.96772313 4
4.5341454 -9.5790739 -0.98874176 2
1.6001601 -3.3805826 -1.7703655 10
4.5316458 -9.5737934 -0.74067426 14
1.7017314 -3.5951674 -1.7709314 15
4.571969 -9.6589832 -0.49834952 13
1.801762 -3.8064973 -1.7590704 15
1.9129206 -4.0413365 -1.7459472 21
2.0423114 -4.3146944 -1.7374623 22
2.183042 -4.6120095 -1.7241501 30
2.3369207 -4.9371018 -1.7044393 17
2.5152524 -5.3138542 -1.685798 23
2.7225296 -5.7517591 -1.6658881 42
2.9516001 -6.2357059 -1.6346651 38
3.2357032 -6.8359165 -1.6075732 31
3.5585527 -7.5179858 -1.5671273 26
0.63748384 -1.3559505 -0.88858134 1
4.0043859 -8.5174694 -1.5463054 22
0.67285705 -1.4311906 -0.88856792 10
4.5941043 -9.771821 -1.5175434 10
0.72427613 -1.5405607 -0.90514117 13
4.5309424 -9.6374741 -1.2453678 9
4.5090518 -9.5909109 -0.98874176 2
1.5920734 -3.3863959 -1.771221 12
4.5082636 -9.5892353 -0.74095327 16
1.6892041 -3.5929964 -1.7676774 16
4.5509167 -9.6799593 -0.49881536 8
1.7941461 -3.8162115 -1.7613829 18
1.8991634 -4.039587 -1.7430373 22
2.0302091 -4.3183255 -1.7367783 24
2.1725726 -4.6211381 -1.7254306 32
2.3231752 -4.9414749 -1.7038436 15
2.5046039 -5.3273802 -1.6880032 23
2.7091086 -5.7623692 -1.666901 42
2.9360931 -6.245173 -1.6351262 36
3.2202928 -6.8496757 -1.6088207 31
3.5405309 -7.5308337 -1.567868 26
0.64121789 -1.3750962 -0.8998034 2
3.9776077 -8.5300074 -1.5463054 22
0.66688377 -1.4301368 -0.8866086 10
4.5600343 -9.779026 -1.5164301 9
0.72017908 -1.5444289 -0.90608013 13
4.4972854 -9.6444597 -1.2444386 9
0.82781851 -1.7752626 -0.98388177 14
4.4772158 -9.6014194 -0.98837018 2
1.5844828 -3.3979344 -1.7746438 7
4.4755864 -9.5979261 -0.74053472 14
1.6809967 -3.6049089 -1.7709314 15
4.5103517 -9.6724806 -0.49769735 8
1.7805884 -3.8184841 -1.7598412 14
1.8880379 -4.0489106 -1.7444923 22
2.0190153 -4.3297925 -1.7388304 21
2.1588449 -4.6296577 -1.7260708 28
2.3108671 -4.9556704 -1.7062266 17
2.4878552 -5.3352222 -1.6880032 22
2.6885393 -5.7655907 -1.6653816 44
2.9172812 -6.2561297 -1.6355875 36
3.1971045 -6.8562126 -1.6079891 31
3.5168548 -7.5419192 -1.567868 25
0.6299113 -1.3613805 -0.88960153 3
3.9506235 -8.5381889 -1.5456569 22
0.66044092 -1.4273618 -0.88366956 10
4.5326629 -9.7961073 -1.5169868 9
0.7170766 -1.5497643 -0.90795803 12
4.4678154 -9.6559572 -1.2442063 9
0.82029611 -1.7728449 -0.98118865 15
4.4503803 -9.6182766 -0.98874176 3
1.5721166 -3.3976989 -1.7720767 8
4.4470892 -9.6111631 -0.74053472 14
1.672595 -3.6148553 -1.7733718 15
4.4866667 -9.6966991 -0.49825636 5
1.7684759 -3.8220754 -1.7590704 19
1.8744516 -4.0511131 -1.7430373 22
2.0053706 -4.3340583 -1.7381464 25
2.1443033 -4.6343231 -1.7254306 29
2.2913427 -4.9521089 -1.7026521 16
2.4720142 -5.3425803 -1.6880032 23
2.6714206 -5.7735424 -1.6653816 44
2.8995233 -6.2665243 -1.6360486 38
3.1775692 -6.867444 -1.6084049 31
3.4936366 -7.5505371 -1.5674976 26
0.6359176 -1.3851304 -0.90388411 4
3.9244494 -8.5480795 -1.5453328 22
0.65693045 -1.4308997 -0.88464922 10
4.4994454 -9.8005133 -1.5155951 9
0.71321201 -1.5534899 -0.90889692 13
4.4358311 -9.6619501 -1.2432771 8
0.81652373 -1.7785194 -0.98298407 8
4.4226537 -9.6332483 -0.98892754 3
1.5627828 -3.4039912 -1.7729324 9
4.4177203 -9.6225023 -0.74039519 14
1.6580505 -3.6114998 -1.7693044 14
4.4545422 -9.7027063 -0.49788368 3
1.7594378 -3.8323374 -1.7613829 17
1.8639781 -4.0600429 -1.7444923 23
1.9940705 -4.3434052 -1.7395145 21
2.1321247 -4.6441092 -1.726711 29
2.2742498 -4.95368 -1.7008648 16
2.4521408 -5.3411555 -1.6852468 22
2.6550856 -5.7832017 -1.6658881 44
2.8792934 -6.2715626 -1.6351262 38
3.1579952 -6.8786197 -1.6088207 31
3.4736786 -7.5662284 -1.5686085 23
0.62205994 -1.3649859 -0.88960153 3
3.9005635 -8.5590057 -1.5453328 21
0.65365517 -1.4343153 -0.88562894 9
4.4720597 -9.8130398 -1.5155951 9
0.70960337 -1.5570824 -0.90983588 12
4.4121275 -9.68153 -1.2442063 9
0.80784822 -1.7726612 -0.97849554 6
4.3924322 -9.6383133 -0.98818439 3
1.5517716 -3.4050522 -1.771221 10
4.3900046 -9.6329861 -0.74025571 12
1.650232 -3.6211035 -1.7717448 14
4.431572 -9.7241974 -0.49834952 3
1.7502596 -3.8405943 -1.7629246 20
4.474164 -9.8176565 -0.2504909 0
1.8534056 -4.0669274 -1.7452198 22
1.9819337 -4.3489566 -1.7395145 25
2.1175761 -4.6465969 -1.7254306 32
2.261991 -4.9634862 -1.7020563 15
2.4380133 -5.3497319 -1.685798 23
2.638123 -5.7888331 -1.6653816 44
2.8609617 -6.2778077 -1.6346651 36
3.1379631 -6.8856311 -1.6084049 31
3.4525361 -7.5758991 -1.5686085 26
0.61895472 -1.3682851 -0.89062172 3
3.8750203 -8.566268 -1.5446843 26
0.64677268 -1.4297805 -0.88171017 9
4.4462719 -9.8290987 -1.5161518 8
0.70161331 -1.5510132 -0.90514117 11
4.3842559 -9.6920033 -1.243974 9
0.8014217 -1.7716535 -0.97670013 6
4.3663206 -9.6523552 -0.98837018 3
1.5415119 -3.4077253 -1.7703655 9
4.3639097 -9.6470261 -0.74039519 13
1.6371014 -3.6190391 -1.7684909 14
4.3895783 -9.7037706 -0.49667251 2
1.7402885 -3.8471484 -1.7636954 18
4.4459062 -9.8282909 -0.25044447 0
1.8412735 -4.0703897 -1.7444923 21
1.9666831 -4.3476248 -1.7367783 25
13.860185 -30.639854 0.7807647 6
2.106154 -4.6559448 -1.726711 29
2.2465479 -4.9663048 -1.7008648 15
2.4254417 -5.3617744 -1.6874518 23
2.6227448 -5.7979403 -1.6658881 47
2.8426175 -6.2839994 -1.634204 39
3.1187224 -6.8943672 -1.6084049 31
3.4337969 -7.5908828 -1.5697194 25
0.61935908 -1.379424 -0.89674282 2
3.8502753 -8.5752554 -1.54436 21
0.64492005 -1.436353 -0.88464922 10
4.4179955 -9.8396702 -1.5158734 9
0.69583273 -1.5497446 -0.90326327 11
4.35636 -9.7023964 -1.2437418 9
0.79573911 -1.7722541 -0.97580242 6
4.3385334 -9.662694 -0.98818439 3
1.5327302 -3.4136658 -1.771221 7
4.3361359 -9.6573544 -0.74025571 13
1.6292338 -3.6285968 -1.7709314 14
4.3665552 -9.7251034 -0.49713835 2
1.7280266 -3.8486261 -1.7621537 19
4.4168053 -9.8370199 -0.25035164 0
1.8283736 -4.0721169 -1.7430373 20
1.9560742 -4.3565292 -1.7381464 24
2.0908155 -4.6566224 -1.7247903 28
2.2342346 -4.9760423 -1.7020563 15
2.4080968 -5.363265 -1.685798 21
2.6073363 -5.8070068 -1.6663946 42
2.8274498 -6.2972388 -1.6355875 36
3.1010602 -6.9066186 -1.6092365 32
3.4109757 -7.5968561 -1.5689789 25
0.61060292 -1.3701493 -0.88960153 1
3.827117 -8.5877771 -1.5446843 21
0.64019674 -1.4365557 -0.88366956 10
4.3905005 -9.8519688 -1.5158734 9
0.69293994 -1.5549076 -0.90514117 11
4.3308659 -9.718153 -1.2442063 9
0.783512 -1.7581449 -0.96682543 6
4.3107228 -9.6729536 -0.9879986 3
1.5268707 -3.4261885 -1.7754993 7
4.3091507 -9.669425 -0.74025571 13
1.6190946 -3.6331325 -1.7709314 14
4.3418202 -9.742734 -0.49741784 1
1.7142676 -3.846694 -1.7590704 17
1.8177533 -4.0789084 -1.7437649 18
1.9423708 -4.358541 -1.7367783 25
2.0778039 -4.6624427 -1.7247903 29
2.2179987 -4.9770303 -1.7002691 16
2.393893 -5.3717246 -1.6863494 22
2.5887473 -5.8089633 -1.664875 47
2.807477 -6.2997775 -1.634204 39
3.0793722 -6.9098911 -1.6079891 31
3.390548 -7.6081471 -1.5693492 26
0.61766404 -1.3971285 -0.9059245 1
3.7968318 -8.5882645 -1.5427388 20
0.63734162 -1.4416384 -0.88562894 10
4.3628516 -9.8685751 -1.5164301 9
0.68903744 -1.5585718 -0.90608013 11
4.300406 -9.7273264 -1.2437418 9
0.76889765 -1.7392122 -0.95515531 6
4.2844191 -9.691165 -0.98855597 3
1.5137745 -3.4240904 -1.7720767 8
4.2812486 -9.6839933 -0.74039519 14
1.6068302 -3.6345782 -1.7693044 15
4.2749267 -9.669693 -0.49303901 0
1.7035929 -3.8534513 -1.7598412 16
1.8071495 -4.0876918 -1.7452198 17
1.93095 -4.367723 -1.7381464 24
2.0654931 -4.6720533 -1.7260708 32
2.2047658 -4.9870815 -1.7014606 16
2.379499 -5.3823204 -1.6874518 25
2.5722826 -5.8183885 -1.6653816 47
2.7903466 -6.3116393 -1.6351262 38
3.0604386 -6.922576 -1.6088207 32
3.3695488 -7.621769 -1.5700898 25
0.61396241 -1.4006375 -0.90694469 1
3.7730017 -8.6073799 -1.5440358 24
0.63210946 -1.4420365 -0.88464922 10
4.3278513 -9.8731632 -1.5150384 9
0.68413764 -1.5607288 -0.90608013 10
4.2666354 -9.733511 -1.2428125 11
0.75697237 -1.7268873 -0.94707596 8
4.2491555 -9.693634 -0.98744124 3
1.5059129 -3.4354517 -1.7754993 8
4.2492023 -9.6937408 -0.74011618 17
1.5932034 -3.634588 -1.7668639 16
4.2260799 -9.6409912 -0.49089617 0
1.6899968 -3.8554037 -1.7582995 18
1.7905591 -4.0848174 -1.7415824 20
1.9194825 -4.3789315 -1.7401985 27
2.0500445 -4.6767836 -1.7254306 33
2.1906204 -4.9974809 -1.7026521 16
2.3564036 -5.3756833 -1.6830417 21
2.5539908 -5.8264408 -1.6653816 47
2.7728481 -6.3257217 -1.6365097 41
3.0371048 -6.9285727 -1.6079891 31
3.3440096 -7.6287169 -1.5693492 26
0.59495187 -1.3676429 -0.88450062 2
3.750525 -8.6215019 -1.5446843 21
0.6287756 -1.445395 -0.88562894 10
4.3018436 -9.8888426 -1.5155951 10
0.67907214 -1.5610139 -0.90514117 10
4.2378531 -9.741745 -1.2423478 21
0.74501771 -1.712606 -0.93809897 9
4.2268353 -9.7164183 -0.98855597 3
1.4941502 -3.4346707 -1.7729324 8
4.2245035 -9.7110577 -0.74053472 17
1.5859629 -3.6457248 -1.7701179 14
4.2063131 -9.6692429 -0.49173468 0
1.6806962 -3.8634925 -1.7598412 14
4.3684731 -10.042007 -0.25425103 0
1.7813747 -4.0949268 -1.7437649 21
1.9034983 -4.3756576 -1.7367783 22
2.0384881 -4.6859651 -1.726711 29
2.17361 -4.9965758 -1.7002691 15
2.3452172 -5.391057 -1.685798 21
2.5369387 -5.8317757 -1.664875 44
2.7582779 -6.3405786 -1.6383541 41
3.017745 -6.937027 -1.6079891 31
3.3234773 -7.6398277 -1.5697194 26
0.58431226 -1.3535054 -0.87429875 3
3.7264347 -8.6319418 -1.5446843 21
0.62542796 -1.4487461 -0.8866086 10
4.2718573 -9.8953619 -1.51476 10
0.67541027 -1.5645255 -0.90608013 9
4.2106323 -9.753541 -1.2423478 30
0.73456544 -1.701553 -0.93091732 10
4.1996856 -9.7281837 -0.98855597 3
1.4852694 -3.4404893 -1.7737881 7
4.1949964 -9.7173214 -0.74011618 15
1.5728793 -3.6434295 -1.7668639 15
4.1856298 -9.6956253 -0.49248001 0
1.6691693 -3.8664765 -1.7590704 15
4.3784528 -10.142282 -0.25647929 0
1.770671 -4.1015959 -1.7444923 18
10.463557 -24.237862 0 6
1.8920165 -4.3826814 -1.7374623 24
13.284345 -30.771957 0.7781651 13
2.0223906 -4.6846814 -1.7241501 29
2.1619186 -5.0078845 -1.7020563 16
2.3324394 -5.4028802 -1.6874518 23
2.5214102 -5.8406138 -1.6653816 47
2.7351615 -6.3357491 -1.6351262 38
2.9983613 -6.9454269 -1.6079891 32
3.2997928 -7.6436653 -1.5686085 23
0.58571076 -1.367884 -0.88246024 2
3.6984763 -8.6375179 -1.5437115 22
0.61975402 -1.4473896 -0.88464922 10
4.2440372 -9.9116344 -1.5153167 10
0.67215544 -1.5697691 -0.90795803 10
4.1848021 -9.7732954 -1.2432771 14
0.72458923 -1.6922244 -0.92463338 10
4.1700191 -9.7387714 -0.98837018 3
1.4757663 -3.4465427 -1.7746438 8
4.1677165 -9.7333937 -0.74039519 15
1.5635004 -3.6514394 -1.7684909 14
4.1733584 -9.7465687 -0.4944365 0
1.6591429 -3.874805 -1.760612 17
4.3892665 -10.250807 -0.25889319 0
1.7606934 -4.111969 -1.7466748 18
1.8790046 -4.3882761 -1.7374623 25
13.254373 -30.954605 0.78178596 6
2.0099738 -4.6941447 -1.7254306 28
2.1470504 -5.014277 -1.7020563 15
2.3148849 -5.4062424 -1.6863494 21
2.5033081 -5.8462906 -1.664875 44
2.716351 -6.3438368 -1.6351262 38
2.9800508 -6.9596877 -1.6092365 31
3.2778728 -7.6552291 -1.5689789 28
0.57987052 -1.3647646 -0.87939972 2
3.6727979 -8.6441793 -1.543063 20
0.61570972 -1.4491147 -0.88464922 10
4.2155681 -9.9216251 -1.5150384 9
0.66500694 -1.5651389 -0.90420222 9
4.1559401 -9.7812872 -1.2428125 14
0.718463 -1.6909515 -0.92283803 10
4.140471 -9.7448797 -0.98781282 3
1.4654291 -3.4489868 -1.7737881 8
4.1405196 -9.7449942 -0.74039519 14
1.5525831 -3.6541097 -1.7676774 14
4.1609683 -9.7931213 -0.49620667 3
1.6475942 -3.8777246 -1.7598412 19
4.4286485 -10.423124 -0.26293188 0
1.7462897 -4.1100111 -1.7437649 18
10.340208 -24.336382 0 4
1.8682128 -4.3969655 -1.7388304 25
1.9961164 -4.6979957 -1.7247903 28
2.132293 -5.018496 -1.7014606 15
2.2960198 -5.4038386 -1.6835929 22
2.4884858 -5.8568201 -1.6658881 42
2.6993861 -6.3531885 -1.6355875 38
2.9598391 -6.9661822 -1.6088207 31
3.2564826 -7.6643529 -1.5689789 25
0.57891876 -1.3745064 -0.88450062 1
3.6440914 -8.6520376 -1.5424145 20
0.60980058 -1.4478279 -0.88268989 10
4.1866837 -9.9402952 -1.5158734 9
0.65940118 -1.565593 -0.90326327 10
4.1267328 -9.7979565 -1.2432771 13
0.7138409 -1.6948473 -0.92373568 11
4.1129279 -9.7651806 -0.98855597 3
1.4566916 -3.4585714 -1.776355 8
4.1098843 -9.7579536 -0.74039519 11
1.5446417 -3.6673884 -1.7717448 15
4.1379366 -9.8245573 -0.49713835 4
1.6361202 -3.8845823 -1.760612 14
10.193416 -24.201866 -0.60970116 6
1.732646 -4.11376 -1.7430373 21
1.8558491 -4.4062772 -1.7401985 27
1.9813474 -4.7042432 -1.7247903 28
2.1172574 -5.0269294 -1.7020563 16
2.2797782 -5.412797 -1.6841443 21
2.4685717 -5.8610425 -1.664875 44
2.6801691 -6.363431 -1.6360486 39
2.9379396 -6.9754462 -1.6088207 32
3.2323883 -7.6745453 -1.5689789 25
0.57773131 -1.3824666 -0.88858134 1
3.6237209 -8.6712847 -1.5440358 19
0.60709971 -1.4527428 -0.88464922 10
4.1566176 -9.9464655 -1.5150384 10
0.65706939 -1.5723163 -0.90608013 10
4.1016536 -9.8149405 -1.243974 14
0.71186173 -1.7034302 -0.9273265 14
4.0856428 -9.7766275 -0.98855597 3
1.4484218 -3.4659617 -1.7780664 7
4.0826192 -9.769393 -0.74039519 10
1.53369 -3.6700017 -1.7709314 14
4.1043224 -9.8213272 -0.49639302 2
1.6245544 -3.8874333 -1.7598412 19
1.7233064 -4.1237392 -1.7452198 18
1.8406386 -4.4045062 -1.7374623 21
1.9689336 -4.7115059 -1.7254306 29
2.1032114 -5.0328226 -1.7020563 15
2.2676191 -5.4262376 -1.6863494 22
2.4514489 -5.866128 -1.6643685 47
2.6623886 -6.3708906 -1.6360486 36
2.9169405 -6.9800134 -1.6079891 29
3.2101865 -7.6817284 -1.5686085 25
0.57230979 -1.3809962 -0.88654101 1
3.6002436 -8.6874676 -1.5450085 24
0.60211915 -1.4529269 -0.88366956 10
4.1278462 -9.9605846 -1.5153167 9
0.65240133 -1.5742589 -0.90608013 10
4.0694723 -9.8197269 -1.2430447 14
0.70680445 -1.7055348 -0.9273265 14
4.0596662 -9.7960653 -0.98929912 3
4.0513234 -9.7759333 -0.73997664 11
1.5220946 -3.6728482 -1.7701179 15
4.0728693 -9.8279247 -0.49611351 0
1.6172522 -3.9024656 -1.7644663 20
10.072991 -24.306353 -0.61086166 4
1.71249 -4.1322765 -1.7466748 17
12.722694 -30.700144 0 7
1.8282816 -4.411684 -1.7381464 19
12.867004 -31.048368 0.7803005 6
1.9527694 -4.7120762 -1.7235099 32
2.0875385 -5.0372767 -1.7014606 15
2.2529812 -5.4364939 -1.6874518 23
2.4347737 -5.8751631 -1.664875 47
2.6442192 -6.3805599 -1.6365097 35
2.8962176 -6.9886374 -1.6079891 31
3.1866279 -7.689404 -1.5682383 25
0.55382472 -1.3476834 -0.86409694 1
3.5744514 -8.6981115 -1.5450085 21
0.59714282 -1.4530942 -0.88268989 10
4.0990272 -9.9746199 -1.5155951 9
0.64638513 -1.572921 -0.90420222 10
4.0410738 -9.8335953 -1.2432771 14
0.70242023 -1.7092775 -0.92822421 14
4.0275555 -9.8007002 -0.98855597 3
0.81973052 -1.9947418 -1.0208052 0
4.0245748 -9.7934475 -0.74039519 11
1.5098014 -3.6739683 -1.7684909 16
4.0436916 -9.8399658 -0.49611351 1
1.6021589 -3.8987122 -1.760612 17
9.9879093 -24.304693 -0.61007249 4
1.6988056 -4.133893 -1.7452198 19
12.63307 -30.741459 0 11
1.8151839 -4.4170895 -1.7381464 19
1.9395001 -4.7196021 -1.7241501 32
2.0725834 -5.0434484 -1.7014606 15
2.2324564 -5.4324851 -1.6841443 22
2.4136541 -5.8734136 -1.6623425 44
2.6237967 -6.3847771 -1.6355875 39
2.875469 -6.9972 -1.6079891 31
3.1667871 -7.7060966 -1.5697194 23
0.55809098 -1.3682427 -0.87633914 1
3.5516677 -8.7074394 -1.5450085 24
0.59333658 -1.4546527 -0.88268989 10
4.0736475 -9.9871511 -1.5158734 10
0.63959724 -1.5680674 -0.90044647 9
4.0153155 -9.844141 -1.2432771 14
0.6992929 -1.7144203 -0.93001962 14
4.0026355 -9.8130541 -0.98874176 3
0.81177455 -1.9901856 -1.0173825 1
4.0004292 -9.8076448 -0.74067426 10
1.4967276 -3.6694496 -1.7644236 14
4.0352712 -9.8930655 -0.49825636 4
1.5940377 -3.9080195 -1.7629246 17
9.9257555 -24.334461 -0.61016536 10
1.6879772 -4.1383262 -1.7452198 19
12.552546 -30.774426 0 11
1.8021941 -4.4183459 -1.7367783 25
1.9292843 -4.7299266 -1.7260708 29
2.0586517 -5.0470896 -1.7008648 15
2.2189527 -5.4400916 -1.6846955 21
2.3989999 -5.8815041 -1.6628491 47
2.6092775 -6.3970304 -1.6369708 39
2.8571405 -7.004704 -1.6079891 29
3.1451173 -7.710721 -1.5689789 23
0.55185568 -1.3652047 -0.87327856 1
3.5228157 -8.7148952 -1.54436 19
0.58614993 -1.4500433 -0.87877119 10
4.0422521 -9.9998999 -1.5158734 10
0.63665324 -1.5749806 -0.90326327 10
3.9828806 -9.8530235 -1.2428125 14
0.69390345 -1.7166088 -0.93001962 13
3.9732797 -9.8292732 -0.98911333 3
0.80551821 -1.9927261 -1.0173825 1
3.9703453 -9.8220139 -0.74081373 10
1.4899855 -3.685991 -1.7701179 15
4.007915 -9.9149551 -0.4987222 0
1.576911 -3.9010313 -1.7575287 17
9.8552523 -24.380354 -0.61053675 14
1.6728734 -4.1384273 -1.7430373 24
12.509769 -30.947214 0 12
1.791122 -4.4309554 -1.7395145 22
1.9137052 -4.7342076 -1.7254306 29
2.0427856 -5.0535321 -1.7008648 15
2.2047331 -5.454165 -1.6869006 23
2.3841364 -5.8979807 -1.6653816 47
2.5913558 -6.4106088 -1.6383541 41
2.8373201 -7.0190864 -1.6092365 32
3.1208777 -7.7205639 -1.5689789 23
0.56340683 -1.4050603 -0.89776301 1
3.4999344 -8.7283621 -1.5450085 24
0.58469409 -1.4581479 -0.88268989 10
4.0143113 -10.011148 -1.5158734 11
0.63093817 -1.5734743 -0.90138543 10
3.9568288 -9.867795 -1.2432771 14
0.6877768 -1.7152221 -0.92822421 13
3.9398868 -9.8255434 -0.98762703 3
0.79658633 -1.9865785 -1.0131042 1
3.9436443 -9.8349142 -0.74095327 10
1.4790064 -3.6884418 -1.7693044 14
1.5687585 -3.9122713 -1.760612 16
1.6606169 -4.1413536 -1.7423099 21
13.396917 -33.410099 0 19
1.7787414 -4.4359403 -1.7395145 16
1.8997722 -4.7377744 -1.7247903 30
2.0279548 -5.057445 -1.7002691 15
2.1859162 -5.4513788 -1.6841443 21
2.3654964 -5.8992281 -1.663862 49
2.5712709 -6.4124017 -1.6369708 39
2.8140676 -7.0179033 -1.6071573 32
3.0985742 -7.7274246 -1.5686085 25
0.54755604 -1.3780473 -0.87939972 1
3.4732249 -8.7411489 -1.5453328 21
0.57882261 -1.4567368 -0.88073051 10
3.9799154 -10.016348 -1.51476 9
0.62599182 -1.5754486 -0.90138543 10
3.9243417 -9.8764849 -1.2428125 15
0.68436468 -1.722357 -0.93091732 13
3.9119408 -9.8452749 -0.98837018 3
0.78833884 -1.9840313 -1.0105373 1
3.9105175 -9.8416929 -0.74053472 9
1.4667369 -3.6913719 -1.7684909 14
1.5578229 -3.9206104 -1.7621537 17
1.6489741 -4.1500125 -1.7437649 19
12.276425 -30.896374 0 8
1.7647967 -4.4415064 -1.7395145 18
25.891457 -65.161652 1.6279123 37
1.886278 -4.747241 -1.7260708 32
2.0134666 -5.0673394 -1.7014606 15
2.1730387 -5.4689388 -1.6874518 25
2.3476663 -5.9084282 -1.6643685 47
2.5468013 -6.4095964 -1.634204 39
2.7927287 -7.0285273 -1.6075732 32
3.0764599 -7.7426004 -1.5697194 23
0.54433638 -1.3811715 -0.88041985 1
3.4502487 -8.7544861 -1.5459812 21
0.57603103 -1.4615918 -0.88268989 10
3.9526551 -10.029265 -1.5150384 9
0.62094241 -1.5755477 -0.90044647 10
3.8989313 -9.8929501 -1.2435094 14
0.68020761 -1.7259243 -0.93181503 12
3.8851626 -9.8580141 -0.98855597 3
0.7814697 -1.9828614 -1.0088259 2
3.8859451 -9.8599997 -0.7410928 10
1.4564229 -3.6954534 -1.7684909 14
1.5434852 -3.9163606 -1.7582995 19
9.637722 -24.454268 -0.61025822 4
1.6373787 -4.1546011 -1.7437649 19
12.189365 -30.928675 0 8
1.753076 -4.4481659 -1.7401985 16
25.743849 -65.321129 1.6300941 37
1.8716245 -4.7489648 -1.7247903 32
1.9965078 -5.0658374 -1.6990775 15
2.1528237 -5.4624653 -1.6835929 21
2.3318672 -5.9167609 -1.664875 49
2.5317469 -6.4239254 -1.6360486 34
2.7738078 -7.0381188 -1.6079891 31
3.0541058 -7.7493329 -1.5693492 26
0.54409415 -1.3905072 -0.88552082 1
3.4288473 -8.7628899 -1.5459812 21
0.57182264 -1.4613713 -0.88171017 10
3.9274154 -10.037049 -1.51476 9
0.61966467 -1.5836382 -0.90420222 10
3.872575 -9.8968973 -1.2428125 15
0.6746859 -1.7242525 -0.93001962 11
3.8625145 -9.8711863 -0.98892754 3
0.7759636 -1.9830816 -1.0079702 3
3.8603871 -9.8657494 -0.74081373 8
1.4467231 -3.6972997 -1.7676774 14
1.5359285 -3.9252763 -1.760612 17
9.5750265 -24.470295 -0.61007249 6
1.6265433 -4.1568546 -1.7430373 20
12.129788 -30.999342 0 12
1.737408 -4.4401846 -1.7354102 17
25.592176 -65.40432 1.6306047 37
1.8613958 -4.7570524 -1.7260708 30
1.9855151 -5.0742564 -1.7002691 15
2.1394701 -5.4677095 -1.6835929 20
2.3159928 -5.9188375 -1.663862 40
2.5153334 -6.4282804 -1.6355875 39
2.7573152 -7.0466971 -1.6084049 31
3.0351615 -7.756772 -1.5693492 26
0.54345387 -1.4018333 -0.89164191 1
3.4013009 -8.7736187 -1.5459812 22
0.56974977 -1.4696634 -0.88562894 10
3.8944321 -10.045645 -1.5142033 10
0.61468649 -1.5855771 -0.90420222 10
3.8429 -9.9127188 -1.2432771 14
0.66926569 -1.7263635 -0.93001962 11
3.8314843 -9.8832722 -0.98892754 3
0.77038318 -1.987195 -1.0088259 3
3.8293738 -9.8778286 -0.74081373 13
1.4344401 -3.7001228 -1.7668639 15
1.5235893 -3.9300821 -1.760612 19
1.6141496 -4.163681 -1.7437649 20
12.057644 -31.102562 0 8
1.7295642 -4.4613919 -1.7415665 18
1.8443873 -4.7575769 -1.7241501 30
1.9695641 -5.0804691 -1.7002691 15
2.1215873 -5.4726114 -1.6830417 23
2.2973869 -5.9260845 -1.663862 44
2.4965329 -6.4397798 -1.6365097 47
2.7337494 -7.0516768 -1.6075732 32
3.010778 -7.7662692 -1.5693492 22
0.52657336 -1.3696266 -0.87021804 1
3.3739543 -8.7757149 -1.5446843 20
0.56564349 -1.4712487 -0.88562894 10
3.867075 -10.05833 -1.5144817 10
0.60772151 -1.5806944 -0.90044647 10
3.8116393 -9.9141407 -1.2421156 15
0.66764891 -1.7365665 -0.93450814 10
3.80387 -9.8939333 -0.98892754 3
0.76547956 -1.9910259 -1.0096816 3
3.8032067 -9.8922081 -0.7410928 13
1.4247576 -3.7058196 -1.7676774 16
1.5126085 -3.9343214 -1.760612 18
9.447587 -24.573339 -0.61123306 38
1.6031846 -4.1699114 -1.7444923 20
12.005911 -31.227585 0 12
1.7164245 -4.4644504 -1.7408825 18
1.8324543 -4.7662458 -1.7254306 28
1.9553691 -5.0859494 -1.7002691 15
2.1069865 -5.480309 -1.6835929 23
2.2808292 -5.932477 -1.663862 47
2.476445 -6.441277 -1.6351262 39
2.717557 -7.0684133 -1.6096523 32
2.9883735 -7.7728119 -1.5689789 26
0.52043116 -1.3664514 -0.86715746 1
3.3505826 -8.7973366 -1.5466297 24
0.55791569 -1.4648713 -0.88073051 10
3.8340468 -10.066728 -1.513925 10
